     50.418314      38.411721     115.425695       0.000000
     65.096848      37.926043     118.652015       0.000000
     66.920528      48.493755     118.080822       0.000000
     59.110902      53.421432     114.419950       0.000000
     55.269886      67.793558     111.064074       0.000000
     48.740425      99.635392     109.684901       0.000000
     63.209927      85.832876     112.441905       0.000000
     59.667962      97.718569     109.921294       0.000000
     66.944524     104.312469     111.819725       0.000000
     59.628924     112.035932     111.551141       0.000000
     68.786429     116.224970     112.133333       0.000000
     57.146193     120.631632     112.844516       0.000000
     60.320810     146.376955     118.812663       0.000000
     57.422117     156.840860     121.218079       0.000000
     66.174899     155.508022     119.105953       0.000000
     55.141875     189.190170     124.522922       0.000000
     46.296242     189.982224     127.698820       0.000000
     55.723327     198.084351     125.863980       0.000000
     64.368282     203.609194     123.911580       0.000000
     59.542478     214.649959     124.785344       0.000000
     49.357881     230.666787     128.176013       0.000000
     63.194686     236.081728     122.286561       0.000000
     71.490882     239.118736     119.098292       0.000000
     70.985691     248.456223     120.132660       0.000000
     54.727450     261.062479     127.268612       0.000000
     72.830312     273.954184     125.676381       0.000000
     56.967294     285.303687     126.108173       0.000000
     61.949281     293.922278     125.321557       0.000000
     58.965364     315.608119     126.673482       0.000000
     68.398870     315.820012     124.441206       0.000000
     72.940023     323.711348     125.403320       0.000000
     62.040571     350.758489     130.903690       0.000000
     64.930049     369.168693     134.898498       0.000000
     51.568251     364.886249     132.671674       0.000000
     66.202409     379.331470     136.334032       0.000000
     54.814449     383.726351     132.644881       0.000000
     52.246070     392.472042     131.472658       0.000000
     61.745468     400.289665     134.078204       0.000000
     60.163585     410.012843     133.128589       0.000000
     67.600693     417.542004     134.889639       0.000000
     66.199286     426.571616     135.165491       0.000000
     53.178096     444.414174     133.490319       0.000000
     47.162697     438.635460     129.461342       0.000000
     56.320613     459.150396     131.272181       0.000000
     74.084352     472.710931     130.565624       0.000000
     60.902189     483.146804     127.910420       0.000000
     53.426408     488.946509     125.985472       0.000000
     60.000000     500.000000     122.957339       0.000000
     70.000000      10.000000     122.119978       0.000000
     59.035408      20.471057     119.562802       0.000000
     72.786942      18.729545     120.792808       0.000000
     78.483383      55.061000     119.871186       0.000000
     68.530438      57.447936     117.891737       0.000000
     73.069283      66.482009     118.997974       0.000000
     52.765877      79.188279     109.172195       0.000000
     66.193277      74.420802     114.235441       0.000000
     74.711889      80.555216     118.312346       0.000000
     69.326966      95.484092     110.843691       0.000000
     74.537951     109.106151     112.833894       0.000000
     78.158906     121.665443     114.997870       0.000000
     70.215789     126.129079     113.559926       0.000000
     80.188359     142.958090     115.771053       0.000000
     57.995329     130.030277     114.840331       0.000000
     66.619302     136.843787     114.246283       0.000000
     76.706560     172.743669     118.180917       0.000000
     85.892249     161.512558     116.771117       0.000000
     61.662274     182.411496     122.651941       0.000000
     64.334243     192.113497     123.811314       0.000000
     65.456729     222.310284     121.026303       0.000000
     57.102580     225.602458     124.469479       0.000000
     75.300007     220.729892     119.128347       0.000000
     70.790074     230.066420     118.973989       0.000000
     80.377233     242.747745     117.399610       0.000000
     70.769389     259.279585     122.820190       0.000000
     79.315953     252.086916     118.645703       0.000000
     64.797923     266.196958     126.122544       0.000000
     80.992328     291.536503     126.039989       0.000000
     68.104279     285.262919     125.533914       0.000000
     56.253838     306.311890     125.651385       0.000000
     67.843127     303.158434     124.948293       0.000000
     67.793606     331.833399     126.975849       0.000000
     64.066777     323.182383     127.362290       0.000000
     66.595608     343.101470     128.214015       0.000000
     73.336518     351.584500     130.704212       0.000000
     58.112212     375.016884     133.528796       0.000000
     62.475629     387.908156     135.668201       0.000000
     70.676411     396.635426     135.001750       0.000000
     72.121687     386.897337     136.721026       0.000000
     70.140077     406.424628     134.280088       0.000000
     74.756904     423.601422     134.784555       0.000000
     73.684496     432.702095     134.405025       0.000000
     68.304527     444.496595     133.910510       0.000000
     69.084179     461.954768     131.674177       0.000000
     78.936197     460.561015     131.096692       0.000000
     70.854628     481.049627     128.899788       0.000000
     66.100110     491.430752     125.153544       0.000000
     75.054867     489.175854     126.062731       0.000000
     70.000000     500.000000     123.284191       0.000000
     80.000000      10.000000     124.274639       0.000000
     91.154965      19.436605     123.083429       0.000000
     80.408723      24.650338     121.571488       0.000000
     76.949662      33.849692     119.925173       0.000000
     84.034935      45.994238     122.183811       0.000000
     83.334650      63.611937     123.854479       0.000000
     93.460443      69.456614     129.653784       0.000000
     80.294834      73.744415     122.916961       0.000000
     83.976341      92.832739     118.762969       0.000000
     75.117539      89.517159     115.491475       0.000000
     77.239227      99.803370     114.248059       0.000000
     86.359699     115.641386     118.277211       0.000000
     85.680421     126.859585     116.925842       0.000000
     89.739177     153.263558     118.299900       0.000000
     88.251731     136.179049     116.893030       0.000000
     69.727669     146.457191     115.776838       0.000000
     75.292177     159.572149     117.969804       0.000000
     74.834072     190.223266     121.283919       0.000000
     85.590316     191.700944     119.382711       0.000000
     70.957017     209.278134     120.820705       0.000000
     81.584761     210.272044     119.461203       0.000000
     93.571893     209.814568     117.144898       0.000000
     84.173127     232.083903     115.202985       0.000000
     95.703252     233.080657     113.528554       0.000000
     85.473344     263.022966     119.316269       0.000000
     76.508762     266.282868     122.511833       0.000000
     79.176055     280.829691     123.458080       0.000000
     87.752852     284.952267     123.083651       0.000000
     71.591093     294.563147     125.662142       0.000000
     81.209044     301.948361     124.797162       0.000000
     87.898508     309.398360     123.663904       0.000000
     75.784418     309.248908     123.923378       0.000000
     82.429161     316.896358     123.158109       0.000000
     54.256087     344.200380     130.718022       0.000000
     81.734106     343.985861     129.149118       0.000000
     70.688525     360.766777     133.649018       0.000000
     87.142259     371.055548     134.801689       0.000000
     81.064352     378.884001     136.392202       0.000000
     72.870970     373.170327     136.353077       0.000000
     78.819712     402.090642     133.580557       0.000000
     87.035780     398.149004     132.664313       0.000000
     76.764406     413.244425     133.175621       0.000000
     54.392511     431.151183     131.299062       0.000000
     87.954062     441.650941     127.834836       0.000000
     74.767996     452.127851     133.117045       0.000000
     87.716459     460.983894     126.695013       0.000000
     84.680308     469.510726     127.467831       0.000000
     81.138850     482.678416     128.362897       0.000000
     86.822538     490.935178     126.695398       0.000000
     80.000000     500.000000     124.300594       0.000000
     90.000000      10.000000     123.864948       0.000000
     86.098797      32.971157     121.842181       0.000000
     92.215109      42.262651     124.374881       0.000000
     75.342267      44.319198     119.367135       0.000000
     86.933840      54.679998     123.943279       0.000000
     94.058603      60.109158     129.371616       0.000000
    104.957927      63.256552     132.363027       0.000000
     93.583674      79.492308     128.260019       0.000000
     86.691016      84.609335     123.376786       0.000000
     89.170130     100.440684     119.641684       0.000000
     82.914037     107.187289     116.328694       0.000000
     92.673018     122.022921     121.223676       0.000000
     95.609323     131.060698     120.871840       0.000000
     93.600312     142.700274     120.372696       0.000000
     77.399052     133.887146     114.918736       0.000000
     88.250611     173.225900     118.612799       0.000000
     80.362644     151.975230     117.864841       0.000000
     70.903867     180.313941     120.396997       0.000000
     97.492443     191.400153     118.904012       0.000000
    107.296913     195.484827     119.312680       0.000000
     77.183514     198.821771     119.453094       0.000000
     88.039049     201.034033     117.977133       0.000000
    100.403847     215.325829     114.906062       0.000000
     86.690163     217.830308     116.740743       0.000000
     93.365132     259.790396     115.988226       0.000000
     89.929567     240.523172     114.653847       0.000000
     93.543705     269.720623     117.960768       0.000000
    119.660324     281.758036     116.913781       0.000000
    102.228715     282.022098     117.952748       0.000000
     83.508296     271.943161     120.974263       0.000000
     99.060627     310.550377     122.731929       0.000000
     88.243493     324.877920     123.167215       0.000000
     81.662671     331.997832     124.586673       0.000000
     74.643642     337.990457     127.252996       0.000000
     88.557508     351.585588     128.049408       0.000000
     82.461862     357.941391     131.469261       0.000000
     98.780587     379.702023     129.610496       0.000000
     79.385175     366.477393     133.889327       0.000000
     80.926181     391.312304     135.523212       0.000000
     94.983375     394.331475     129.693380       0.000000
     89.671609     406.622966     130.782691       0.000000
     92.002092     426.617342     127.828053       0.000000
     85.844031     419.451247     131.569355       0.000000
     76.837210     441.123971     132.667436       0.000000
     83.220656     434.180411     131.874884       0.000000
     86.490539     451.727749     127.782358       0.000000
     95.948835     469.704232     125.949410       0.000000
     91.654724     478.586537     126.252082       0.000000
     96.524751     487.902845     125.288154       0.000000
     90.000000     500.000000     124.915895       0.000000
    100.000000      10.000000     124.398946       0.000000
    101.245989      21.651006     124.330739       0.000000
     95.265309      28.509474     122.906272       0.000000
     99.492103      36.124364     125.446421       0.000000
     95.008350      51.344413     126.530015       0.000000
    102.760730      45.352971     127.353635       0.000000
    105.637827      53.553164     129.854084       0.000000
    102.487921      71.960926     131.513980       0.000000
    102.556917      87.711501     128.240491       0.000000
     94.933804      91.855799     124.912759       0.000000
    101.618146     105.446029     125.974753       0.000000
     94.075195     110.504099     121.114256       0.000000
    106.122823     127.368892     124.275277       0.000000
    101.130366     118.509251     124.114316       0.000000
     67.272998     164.237656     121.025425       0.000000
     97.032720     160.833752     120.025238       0.000000
     83.260451     181.631728     117.932366       0.000000
     95.334932     179.937734     118.817771       0.000000
    116.582557     198.453715     122.658877       0.000000
    107.860744     204.472413     118.857992       0.000000
     98.831693     201.579342     118.406476       0.000000
    106.689512     235.836610     112.537230       0.000000
    106.112529     222.177157     112.929572       0.000000
    103.166808     258.462420     113.821672       0.000000
    102.643794     268.657839     115.801824       0.000000
     93.958758     278.822573     120.583519       0.000000
     96.472253     290.029078     122.450566       0.000000
    111.156680     286.806821     118.217751       0.000000
    106.717115     295.410030     121.530982       0.000000
     89.459094     296.639201     124.186242       0.000000
     99.759449     301.417066     123.464868       0.000000
     95.984674     329.846680     123.989623       0.000000
    112.182390     343.138218     122.564585       0.000000
     91.701274     338.337158     125.741584       0.000000
     99.664052     343.384071     124.242494       0.000000
     91.981096     362.760599     130.078736       0.000000
     98.237302     370.137968     129.733227       0.000000
     90.929522     384.200562     133.072937       0.000000
    110.533850     382.312243     124.489613       0.000000
    102.434618     388.774279     126.728635       0.000000
     98.420013     404.783901     127.175625       0.000000
     93.725378     415.394609     129.448916       0.000000
    110.884370     419.488871     121.195234       0.000000
    101.321786     425.743268     123.641935       0.000000
    105.701134     454.070668     121.986408       0.000000
    101.645397     462.599605     124.268615       0.000000
     96.034246     454.230031     124.397212       0.000000
    103.265681     481.588548     125.080778       0.000000
    105.885248     491.637738     125.682734       0.000000
    100.000000     500.000000     125.203397       0.000000
    110.000000      10.000000     124.120778       0.000000
    113.565284      18.596678     123.919370       0.000000
    108.381714      29.814153     125.496434       0.000000
    117.997025      29.636575     125.061323       0.000000
    115.334979      50.835525     129.234291       0.000000
    114.067479      61.322223     132.152098       0.000000
    112.427461      71.844856     131.813654       0.000000
    107.362204      79.944457     131.473387       0.000000
    116.070736      82.297434     131.201154       0.000000
    104.339098      96.555192     128.878696       0.000000
    115.270081     127.269338     125.707255       0.000000
    110.220426     110.686863     128.475020       0.000000
    118.703732     135.688678     126.221176       0.000000
    104.664163     137.711330     123.258526       0.000000
    110.005841     145.100982     124.547712       0.000000
    124.056301     169.347604     129.435898       0.000000
    106.929838     161.000519     123.157529       0.000000
    102.157105     169.520911     121.720100       0.000000
    104.029429     178.402656     121.922536       0.000000
    127.227175     197.949868     125.385877       0.000000
    110.684777     212.976151     117.152679       0.000000
    116.322050     220.026681     115.983315       0.000000
     94.684289     222.672118     114.189549       0.000000
     89.895340     250.452802     115.361368       0.000000
    115.933404     253.752164     112.196760       0.000000
    126.415166     259.760522     111.286689       0.000000
    110.639016     277.436416     116.613782       0.000000
    119.413834     292.302846     117.800247       0.000000
    114.820795     300.756506     120.732045       0.000000
    107.592741     307.209568     122.203850       0.000000
    106.079588     316.572277     123.293379       0.000000
    103.280237     335.198758     121.984974       0.000000
    122.636973     337.031598     122.316231       0.000000
    113.494608     333.735408     122.520666       0.000000
    109.442123     352.676903     126.023433       0.000000
     98.605500     356.842605     128.334031       0.000000
    107.886187     364.689386     127.062444       0.000000
    107.416891     374.059987     127.486450       0.000000
    111.460919     392.854074     123.353483       0.000000
    105.082711     399.431228     124.117073       0.000000
    102.059539     413.967335     125.122088       0.000000
    110.959084     409.906171     121.546102       0.000000
    120.139314     428.816300     119.120003       0.000000
    110.671367     428.845681     120.517420       0.000000
     98.551949     445.004848     123.977831       0.000000
    111.334710     463.332589     121.336854       0.000000
    130.478020     482.034458     122.168019       0.000000
    105.548537     471.831089     123.781569       0.000000
    112.237398     482.546612     124.876874       0.000000
    110.000000     500.000000     124.430444       0.000000
    120.000000      10.000000     124.391900       0.000000
    125.290855      23.339563     125.266615       0.000000
    133.720159      28.518647     126.728407       0.000000
    113.279931      37.519711     126.172710       0.000000
    128.787452      48.456099     128.492071       0.000000
    134.461776      57.898387     129.556668       0.000000
    134.578934      67.477891     129.953421       0.000000
    122.528486      73.107533     131.471284       0.000000
    116.505002      92.090872     129.730047       0.000000
    116.085440     103.369513     129.638917       0.000000
    109.946760     119.439384     126.256213       0.000000
    124.815633     127.397202     128.551123       0.000000
    139.266120     123.299546     129.976054       0.000000
    101.475619     152.825680     122.396767       0.000000
    115.387029     154.674659     125.380064       0.000000
    140.823452     155.112989     131.740313       0.000000
    114.839860     177.004336     124.780440       0.000000
    113.885383     167.942629     125.257132       0.000000
    135.547203     205.754400     126.463652       0.000000
    117.237518     207.383804     120.760096       0.000000
    126.475887     216.993768     120.229309       0.000000
    125.072004     225.894404     116.278273       0.000000
    127.693984     235.098460     114.365894       0.000000
     98.960490     244.219084     112.733248       0.000000
    106.739713     249.838063     113.258251       0.000000
    112.015002     262.492568     112.771149       0.000000
    125.275432     250.536177     112.017093       0.000000
    120.280108     272.809438     114.010171       0.000000
    128.798201     290.352723     117.075137       0.000000
    130.603260     300.781196     120.324569       0.000000
    117.139559     318.023664     120.884167       0.000000
     96.484715     319.796687     123.308263       0.000000
    121.094530     326.549948     122.694463       0.000000
    130.830564     351.655138     125.535613       0.000000
    123.366997     346.384066     123.619454       0.000000
    118.695404     353.990758     125.327438       0.000000
    129.544368     385.303149     123.612416       0.000000
    123.064537     362.701145     127.245393       0.000000
    119.399302     372.040789     125.843590       0.000000
    114.988988     401.506466     121.313092       0.000000
    122.975743     410.552050     121.112102       0.000000
    122.302731     420.099549     120.684701       0.000000
    127.691411     434.092762     118.999109       0.000000
     95.245455     435.591807     125.498389       0.000000
    110.461372     446.413848     121.447827       0.000000
    115.065351     472.674135     121.533809       0.000000
    125.179606     471.763494     120.262256       0.000000
    141.780588     483.034827     120.689684       0.000000
    114.849552     491.802218     124.214097       0.000000
    120.000000     500.000000     124.602506       0.000000
    130.000000      10.000000     125.319830       0.000000
    137.793032      20.024314     126.000892       0.000000
    125.687096      34.325864     126.191235       0.000000
    145.939627      56.090906     128.141412       0.000000
    120.811057      43.617110     126.644888       0.000000
    131.569633      78.284582     130.831266       0.000000
    123.910554      63.006404     130.992129       0.000000
    125.180804      84.691558     130.274762       0.000000
    127.048166      97.942184     130.303649       0.000000
    121.107610     117.998154     128.102244       0.000000
    130.831391     120.167866     128.833907       0.000000
    142.429674     131.735255     130.111427       0.000000
    132.806872     131.819629     128.663441       0.000000
    120.751502     144.792806     126.041864       0.000000
    124.668514     160.337254     128.540161       0.000000
    134.117889     162.178783     130.459761       0.000000
    123.853339     178.915447     127.825841       0.000000
    110.659975     185.298541     122.519417       0.000000
    137.103328     195.988550     129.227470       0.000000
    145.205725     204.525910     127.749562       0.000000
    126.820833     207.365228     124.026313       0.000000
    135.997772     214.639417     123.917293       0.000000
    136.714416     233.551569     115.829258       0.000000
    131.892393     244.075916     112.356209       0.000000
    116.232839     230.636965     112.369119       0.000000
    118.136792     244.125279     112.146055       0.000000
    135.355034     260.847421     110.997329       0.000000
    134.178506     278.526469     117.260172       0.000000
    137.544033     289.718112     119.328647       0.000000
    134.079143     324.025251     121.710848       0.000000
    141.743944     299.702616     120.941357       0.000000
    110.292323     324.657931     123.092392       0.000000
    122.739816     305.658083     120.625240       0.000000
    132.502045     365.825297     128.594779       0.000000
    129.145638     374.520045     126.008317       0.000000
    137.836605     375.675953     129.099943       0.000000
    145.832364     380.464074     131.451262       0.000000
    119.955450     381.488904     123.460839       0.000000
    120.652345     392.860830     121.265772       0.000000
    126.047402     401.923243     120.388346       0.000000
    135.147888     405.423718     121.792956       0.000000
    131.446984     414.026381     121.308907       0.000000
    115.902882     439.221187     120.890941       0.000000
    107.022899     437.224302     122.715144       0.000000
    120.940639     481.524392     122.503058       0.000000
    130.073676     460.253634     117.963674       0.000000
    121.376151     463.468439     119.513662       0.000000
    134.591006     470.595816     119.619074       0.000000
    125.594843     489.682777     123.786641       0.000000
    130.000000     500.000000     124.826985       0.000000
    140.000000      10.000000     126.191427       0.000000
    143.594347      28.719787     126.862833       0.000000
    138.749949      48.754202     128.649120       0.000000
    134.949245      39.465190     128.122551       0.000000
    148.066001      65.130233     128.934902       0.000000
    158.291351      65.654678     128.469410       0.000000
    142.491235      72.999294     130.006761       0.000000
    136.545636      92.887363     130.652904       0.000000
    146.511932      96.118502     131.489376       0.000000
    124.480339     107.584929     129.762897       0.000000
    136.418827     102.353753     130.354284       0.000000
    148.566252     120.155739     130.384640       0.000000
    151.113464     134.522332     131.054761       0.000000
    130.309193     141.377524     128.886881       0.000000
    129.811226     151.195340     128.700256       0.000000
    138.455527     145.223863     130.078447       0.000000
    121.641573     189.346611     124.481625       0.000000
    147.941594     181.573152     133.055027       0.000000
    130.198983     189.275475     128.433950       0.000000
    147.349104     193.300516     130.333912       0.000000
    153.516853     199.927647     127.914637       0.000000
    135.522039     223.455816     120.511985       0.000000
    144.724500     221.874399     121.175621       0.000000
    137.004378     251.523760     111.668004       0.000000
    144.877589     256.661965     114.174207       0.000000
    128.516882     268.909174     112.117937       0.000000
    144.117048     280.290161     119.329215       0.000000
    147.599525     291.717060     120.545292       0.000000
    143.307192     314.993348     121.961693       0.000000
    162.944366     301.185094     126.161908       0.000000
    134.654980     309.445200     120.641907       0.000000
    128.040436     315.962195     121.105325       0.000000
    140.088568     332.579662     123.504180       0.000000
    138.052638     342.394053     124.744011       0.000000
    143.208235     351.814796     126.992816       0.000000
    147.169130     338.460938     126.170674       0.000000
    145.246473     370.905478     132.372726       0.000000
    140.109124     388.663439     126.320960       0.000000
    132.878948     394.081272     122.239360       0.000000
    144.266568     412.138846     122.851315       0.000000
    153.149654     429.568345     119.624550       0.000000
    147.332922     440.953379     116.660798       0.000000
    132.426750     425.289246     120.752631       0.000000
    133.788224     452.216953     116.340641       0.000000
    119.510490     453.229310     119.203708       0.000000
    124.934777     442.936730     119.320118       0.000000
    144.932503     474.355722     118.685162       0.000000
    152.518284     480.522105     120.178685       0.000000
    136.188495     490.837901     122.376832       0.000000
    140.000000     500.000000     125.219989       0.000000
    150.000000      10.000000     126.925629       0.000000
    147.730840      18.761398     128.000582       0.000000
    144.164992      38.295605     126.613183       0.000000
    156.004416      37.817428     128.715378       0.000000
    159.886218      46.985955     127.148985       0.000000
    147.578705      46.741946     127.767578       0.000000
    143.093357      82.595931     129.842753       0.000000
    151.387596      76.449627     129.041112       0.000000
    151.326428      86.601745     129.572466       0.000000
    158.485477      93.335954     130.075690       0.000000
    154.522555     111.519265     130.051728       0.000000
    138.148701     113.577817     130.233301       0.000000
    166.917615     125.801902     133.093869       0.000000
    149.337764     144.173626     131.519764       0.000000
    159.147697     144.365412     132.855908       0.000000
    142.505438     166.412211     133.666719       0.000000
    140.034008     175.285744     134.190976       0.000000
    131.428406     174.792243     131.265455       0.000000
    155.184040     187.427315     131.533852       0.000000
    160.668390     194.350881     128.825245       0.000000
    145.054876     213.161972     124.481084       0.000000
    156.007522     208.203110     124.909773       0.000000
    157.368261     227.083675     118.197310       0.000000
    163.664195     235.613036     117.231368       0.000000
    142.263763     241.701551     113.492700       0.000000
    154.141801     248.330032     115.829806       0.000000
    147.368653     266.391716     115.924053       0.000000
    160.133992     277.977579     123.242334       0.000000
    138.745398     270.762084     115.653032       0.000000
    148.284900     306.455168     121.995699       0.000000
    157.556091     312.214896     123.969568       0.000000
    130.995453     332.888872     122.369257       0.000000
    153.721807     320.758386     122.070673       0.000000
    160.585939     342.294606     128.890999       0.000000
    152.737084     330.027590     123.650202       0.000000
    151.453801     347.228053     128.917679       0.000000
    139.120724     359.512881     129.871203       0.000000
    145.240840     401.486451     124.520759       0.000000
    152.299244     387.529841     133.071967       0.000000
    141.786382     421.264498     122.656668       0.000000
    164.078691     432.434794     117.869864       0.000000
    158.337314     449.985267     115.340673       0.000000
    140.974626     433.483229     119.683003       0.000000
    136.798041     442.327672     117.373037       0.000000
    146.361379     450.295812     115.554029       0.000000
    141.420528     459.472886     115.738064       0.000000
    161.189534     472.577636     117.873182       0.000000
    165.143097     480.098735     121.439436       0.000000
    149.151492     489.820479     123.104868       0.000000
    150.000000     500.000000     124.922776       0.000000
    160.000000      10.000000     126.476765       0.000000
    156.964735      18.638941     127.452700       0.000000
    153.389725      27.273252     128.700268       0.000000
    166.564735      36.168411     128.512732       0.000000
    175.034892      52.038061     126.903337       0.000000
    155.992933      55.795312     128.922207       0.000000
    169.100186      66.013601     126.821140       0.000000
    163.578856      72.884084     129.527486       0.000000
    160.581412      83.037773     129.074652       0.000000
    158.773240     103.001285     130.605421       0.000000
    161.463563     118.216998     130.583847       0.000000
    156.068836     126.706847     131.013568       0.000000
    172.185836     135.774012     134.967147       0.000000
    163.039856     135.812314     133.749063       0.000000
    164.490237     152.301260     133.719498       0.000000
    151.004098     172.953923     132.369502       0.000000
    139.205724     184.997406     132.205120       0.000000
    160.045417     170.406905     131.211725       0.000000
    161.971038     179.652364     130.867308       0.000000
    163.636088     213.211180     121.508196       0.000000
    164.351918     203.426135     125.370726       0.000000
    191.391889     222.447065     116.553217       0.000000
    165.376247     222.656445     118.657176       0.000000
    171.655179     240.390293     119.098267       0.000000
    147.578633     230.945170     117.664763       0.000000
    163.808564     247.662316     117.257224       0.000000
    169.317406     274.542890     126.664635       0.000000
    152.673642     283.043127     121.487758       0.000000
    154.566501     297.617131     123.119960       0.000000
    171.397581     297.292118     128.177638       0.000000
    168.822889     310.323791     126.493789       0.000000
    143.262543     324.008503     122.665207       0.000000
    162.263736     332.129279     125.140881       0.000000
    161.897978     350.491031     133.156441       0.000000
    154.548360     356.080402     132.901065       0.000000
    156.267913     367.109798     135.565867       0.000000
    147.756335     362.044333     132.497044       0.000000
    154.265133     378.574967     135.523755       0.000000
    150.505697     396.270395     130.382287       0.000000
    153.941918     406.869995     125.270138       0.000000
    172.690041     411.987267     126.733236       0.000000
    152.002491     419.305048     122.846411       0.000000
    170.045733     439.741624     116.932829       0.000000
    179.411168     440.005497     118.561589       0.000000
    167.421755     451.973826     115.167505       0.000000
    175.636088     458.469422     115.083293       0.000000
    154.950260     458.499274     115.601778       0.000000
    171.989853     470.039308     118.705117       0.000000
    159.572321     486.800328     123.974247       0.000000
    160.000000     500.000000     124.575614       0.000000
    170.000000      10.000000     126.905280       0.000000
    162.736160      26.017112     128.525673       0.000000
    174.023070      29.522478     128.561400       0.000000
    186.662672      36.944909     125.202317       0.000000
    177.514115      41.832105     126.505576       0.000000
    168.757326      45.343340     127.208631       0.000000
    165.626646      56.954848     126.983819       0.000000
    171.726513      78.290577     128.893465       0.000000
    170.669348      87.282618     129.007082       0.000000
    168.097623      96.044130     128.774064       0.000000
    185.548182     122.442304     133.647663       0.000000
    145.073025     106.439761     130.144721       0.000000
    171.384924     117.709409     131.811316       0.000000
    169.549003     144.633320     134.405899       0.000000
    153.451734     163.121389     132.403730       0.000000
    151.088766     153.472642     132.774668       0.000000
    180.869236     173.574667     130.089104       0.000000
    169.155556     173.425505     130.237113       0.000000
    168.311595     188.245968     129.999819       0.000000
    171.200975     196.691702     127.007717       0.000000
    154.496442     218.505021     121.769247       0.000000
    182.506971     219.137811     117.184916       0.000000
    172.733711     229.056880     118.212217       0.000000
    164.015472     256.650160     119.462686       0.000000
    154.584030     238.033799     116.857514       0.000000
    151.479553     274.225272     119.521690       0.000000
    163.583083     268.421418     122.234982       0.000000
    174.428966     283.334314     128.574767       0.000000
    163.955356     287.743547     126.787322       0.000000
    178.382121     291.532901     129.331204       0.000000
    176.713119     305.561339     126.625283       0.000000
    165.905975     323.297419     125.690250       0.000000
    170.213710     341.290838     129.019355       0.000000
    172.284003     350.246122     134.056069       0.000000
    167.333952     361.036144     135.150416       0.000000
    174.035950     369.439089     135.630189       0.000000
    164.095777     372.520871     136.828435       0.000000
    161.076186     385.110581     135.839852       0.000000
    159.434603     394.260931     132.266768       0.000000
    163.549099     403.301134     130.039726       0.000000
    160.878521     413.284844     125.189795       0.000000
    181.381947     404.536825     127.458026       0.000000
    161.579729     421.891275     121.427257       0.000000
    157.043086     441.013500     115.924113       0.000000
    186.290529     456.409709     115.855322       0.000000
    148.582118     466.266171     116.543513       0.000000
    195.162397     456.543484     118.233561       0.000000
    175.190700     478.091648     121.526153       0.000000
    167.523791     491.176061     124.613231       0.000000
    170.000000     500.000000     125.798659       0.000000
    180.000000      10.000000     126.345636       0.000000
    168.582718      19.154331     127.303931       0.000000
    178.151264      20.535479     126.918202       0.000000
    184.282275      28.303331     127.532282       0.000000
    184.581043      48.193336     125.238466       0.000000
    177.436304      61.827235     125.940114       0.000000
    180.319096      90.915865     126.598039       0.000000
    188.424691      95.670658     127.135667       0.000000
    166.604361     109.487836     131.433499       0.000000
    180.748408     111.930745     131.626534       0.000000
    194.317014     115.122760     132.923787       0.000000
    189.841407     131.414489     135.703320       0.000000
    176.010319     125.003685     134.446535       0.000000
    178.808699     144.964200     134.030546       0.000000
    173.359603     153.435665     135.002723       0.000000
    164.971759     162.563959     132.648038       0.000000
    174.851864     180.488189     130.664774       0.000000
    179.957680     192.990973     126.625651       0.000000
    176.119114     208.507924     121.847761       0.000000
    173.588354     217.217046     119.101949       0.000000
    186.758052     209.527203     119.491399       0.000000
    195.100404     210.116250     116.092190       0.000000
    197.939709     230.415130     116.967804       0.000000
    180.515547     239.178590     120.174982       0.000000
    171.825628     263.203817     123.270219       0.000000
    154.762618     259.585255     116.916939       0.000000
    178.310502     272.005576     127.774762       0.000000
    189.079327     285.566115     131.213324       0.000000
    186.723130     296.529946     128.732124       0.000000
    186.443690     306.701921     126.529359       0.000000
    187.537918     315.268972     123.733987       0.000000
    174.438813     317.527729     125.339968       0.000000
    172.052732     330.291768     126.541249       0.000000
    179.281255     341.976866     128.401451       0.000000
    181.440585     350.408382     132.072468       0.000000
    187.663401     368.250917     132.872297       0.000000
    181.581716     375.112277     134.688450       0.000000
    173.507520     378.769396     136.333686       0.000000
    172.795200     400.668899     132.045945       0.000000
    169.923820     392.705011     135.154505       0.000000
    189.128262     391.367353     129.927952       0.000000
    190.321743     399.869184     127.009854       0.000000
    172.108328     420.821970     122.730751       0.000000
    174.436892     431.636634     119.419847       0.000000
    165.672821     461.420424     115.911562       0.000000
    188.304162     447.662459     117.840891       0.000000
    193.260173     467.525972     120.014858       0.000000
    181.912978     466.601696     118.539139       0.000000
    178.585812     489.101287     126.027998       0.000000
    180.000000     500.000000     126.112602       0.000000
    190.000000      10.000000     126.450775       0.000000
    190.221280      19.851058     126.536116       0.000000
    202.265884      39.064079     123.731285       0.000000
    197.380665      50.676162     121.118408       0.000000
    190.841681      66.690734     123.076950       0.000000
    190.026895      55.421242     123.416536       0.000000
    180.636396      81.776072     125.725573       0.000000
    188.636919      86.529463     124.976140       0.000000
    197.419627      94.279233     127.802030       0.000000
    176.746197      99.434284     128.341024       0.000000
    186.320591     104.605171     130.751270       0.000000
    199.886869     132.338369     132.880161       0.000000
    182.015119     136.085195     135.349693       0.000000
    196.705061     156.339676     131.590187       0.000000
    190.934750     175.104596     128.800506       0.000000
    204.418575     178.105121     125.942791       0.000000
    203.252867     187.486374     122.420361       0.000000
    187.818050     187.110389     127.872276       0.000000
    196.352300     182.248741     126.828955       0.000000
    194.565579     191.890935     122.509171       0.000000
    181.268437     201.134779     122.920442       0.000000
    200.249539     197.464818     117.225597       0.000000
    200.331315     220.311619     115.791028       0.000000
    185.924436     247.521361     121.116293       0.000000
    196.404437     249.040679     121.657874       0.000000
    180.397167     262.291192     125.943004       0.000000
    205.385625     268.499884     128.020680       0.000000
    197.429958     272.529170     130.043336       0.000000
    205.996973     296.132216     128.170579       0.000000
    199.379590     285.534896     130.825546       0.000000
    184.861774     324.858971     123.396919       0.000000
    191.692473     330.948647     124.183706       0.000000
    182.596843     333.806484     125.182193       0.000000
    188.113739     344.280819     129.419133       0.000000
    195.267501     350.494475     128.094349       0.000000
    180.952430     360.021230     134.636536       0.000000
    196.907613     365.395019     129.407748       0.000000
    186.748388     382.306772     131.319670       0.000000
    178.666560     385.837438     134.174479       0.000000
    179.978935     395.154897     132.681721       0.000000
    198.146509     409.689045     122.005388       0.000000
    181.424481     415.581025     124.696481       0.000000
    189.484521     411.037341     124.173546       0.000000
    180.937084     425.238817     120.758360       0.000000
    179.528931     450.315646     115.736318       0.000000
    200.393789     448.935913     118.277433       0.000000
    197.071359     478.050780     121.327065       0.000000
    185.793119     480.747044     122.948036       0.000000
    189.158608     490.711240     125.673897       0.000000
    190.000000     500.000000     126.613740       0.000000
    200.000000      10.000000     127.943628       0.000000
    201.530784      20.581854     126.984802       0.000000
    193.186683      42.933572     123.459836       0.000000
    195.864074      29.421982     124.258017       0.000000
    197.921907      59.819961     121.316082       0.000000
    178.829419      71.539489     125.906690       0.000000
    188.515372      77.299736     123.787374       0.000000
    209.816153      92.185013     124.323429       0.000000
    197.998135      85.119953     124.021656       0.000000
    204.601907      99.669570     128.550622       0.000000
    197.234058     104.157033     131.573417       0.000000
    204.992736     124.777895     133.034424       0.000000
    188.164540     142.404306     133.254444       0.000000
    185.609635     151.115287     132.265508       0.000000
    197.684465     142.371911     132.113019       0.000000
    210.167001     159.402280     127.325451       0.000000
    176.069477     161.770594     132.488204       0.000000
    219.827233     174.716533     120.881256       0.000000
    220.124688     193.508525     115.865549       0.000000
    211.757837     184.091717     122.817253       0.000000
    214.376706     201.285281     112.390556       0.000000
    190.845630     200.299548     120.769803       0.000000
    203.586724     206.819188     114.873660       0.000000
    183.878974     229.887825     118.499080       0.000000
    203.098678     239.480846     118.689700       0.000000
    190.833506     235.765153     118.367901       0.000000
    176.649481     250.421189     121.728558       0.000000
    188.160693     276.522574     130.041449       0.000000
    188.932501     267.565007     128.124924       0.000000
    195.882958     294.219524     129.540085       0.000000
    196.237080     319.175980     121.106487       0.000000
    204.756780     327.753496     120.952525       0.000000
    215.029061     327.600382     122.646369       0.000000
    199.970702     339.089941     124.560849       0.000000
    205.760468     346.958770     125.815914       0.000000
    189.862092     358.040361     130.526558       0.000000
    208.204115     380.995550     125.464278       0.000000
    197.379882     387.383308     127.787988       0.000000
    194.738532     378.095117     129.104201       0.000000
    208.444687     401.899136     124.490569       0.000000
    199.168538     400.768225     125.029498       0.000000
    198.948928     419.199354     118.593976       0.000000
    198.221798     430.530386     119.357037       0.000000
    189.347792     420.397975     121.218082       0.000000
    186.603353     434.729208     119.966606       0.000000
    201.548897     463.282336     119.554168       0.000000
    206.191473     472.920621     120.520004       0.000000
    206.008386     481.845456     121.944507       0.000000
    197.653280     487.728586     123.627245       0.000000
    200.000000     500.000000     126.049652       0.000000
    210.000000      10.000000     127.976114       0.000000
    215.413390      19.983637     127.330129       0.000000
    225.822779      38.570664     118.062502       0.000000
    208.000458      29.353218     125.858055       0.000000
    207.794607      59.616750     119.460883       0.000000
    196.693525      73.584819     122.646996       0.000000
    224.244840      67.371131     117.081989       0.000000
    205.198088      79.112917     122.163079       0.000000
    230.617401      83.307814     119.301126       0.000000
    215.307213      99.066618     126.268453       0.000000
    211.884890     107.962331     128.719802       0.000000
    204.694503     113.903596     131.226985       0.000000
    196.040848     123.956951     134.398881       0.000000
    206.360124     138.734978     131.594792       0.000000
    215.864824     141.036981     130.736781       0.000000
    187.917492     164.178894     130.866390       0.000000
    212.522312     170.990927     125.122447       0.000000
    220.012189     165.283281     123.453380       0.000000
    231.308435     192.113565     112.540560       0.000000
    210.691832     194.660157     118.235917       0.000000
    221.328295     210.840501     111.252508       0.000000
    224.405500     202.086988     112.033932       0.000000
    209.016296     220.208591     113.119428       0.000000
    207.830981     229.922850     115.745678       0.000000
    210.782775     247.235210     120.841512       0.000000
    206.509166     255.579652     123.408233       0.000000
    186.923986     255.627109     124.931522       0.000000
    213.951352     272.883076     128.643417       0.000000
    216.233070     287.059000     130.137085       0.000000
    204.267785     305.256152     125.382676       0.000000
    195.331467     308.633556     124.465064       0.000000
    205.482915     318.742716     121.835749       0.000000
    223.514823     321.445896     122.265680       0.000000
    210.598051     337.082445     123.688931       0.000000
    214.568347     346.349077     123.563526       0.000000
    202.682618     358.691078     127.206431       0.000000
    214.068992     388.508113     124.421595       0.000000
    205.856659     393.243343     126.193042       0.000000
    231.873458     392.277295     124.157917       0.000000
    217.333206     397.598274     124.361897       0.000000
    207.621851     411.852946     121.142874       0.000000
    218.213352     419.734444     119.607843       0.000000
    193.884704     440.726290     119.176736       0.000000
    207.789230     443.379448     116.000721       0.000000
    217.619859     449.568085     116.066457       0.000000
    206.792581     455.660957     118.735857       0.000000
    215.461483     461.834026     118.677700       0.000000
    215.852883     482.765126     122.170898       0.000000
    209.466004     491.261577     123.398553       0.000000
    210.000000     500.000000     126.061370       0.000000
    220.000000      10.000000     126.269048       0.000000
    225.395827      18.633380     124.038682       0.000000
