     78.118308     364.614433     134.096584       0.000000
     81.272667     389.734145     134.043751       0.000000
     95.020892     392.759020     129.953823       0.000000
     85.330738     408.186805     130.634339       0.000000
     93.116157     425.281292     126.485035       0.000000
     84.008449     420.994214     131.556197       0.000000
     78.318671     441.975961     131.693570       0.000000
     83.446251     433.001432     130.843274       0.000000
     85.171037     450.238664     127.861824       0.000000
     93.789351     469.300442     125.865997       0.000000
     91.612021     478.530514     127.599730       0.000000
     96.561888     488.381823     125.879858       0.000000
     90.000000     500.000000     124.293269       0.000000
    100.000000      10.000000     124.144115       0.000000
    103.279993      20.438403     123.527347       0.000000
     94.937438      28.534893     122.753775       0.000000
    100.224364      35.801196     125.097963       0.000000
     95.806095      50.567108     126.214545       0.000000
    104.010556      43.587791     128.105660       0.000000
    106.512861      53.659088     130.986847       0.000000
    101.640304      72.565410     130.603598       0.000000
    103.588114      87.212631     129.050903       0.000000
     94.970064      92.602602     124.920722       0.000000
    101.855445     106.388964     126.622450       0.000000
     93.448959     109.502841     121.604578       0.000000
    104.225857     128.214262     123.848912       0.000000
    100.207286     115.302156     123.514298       0.000000
     65.892875     163.718116     121.655589       0.000000
     96.305134     159.957105     119.978853       0.000000
     84.954130     180.037537     116.625237       0.000000
     95.012806     179.244973     119.173738       0.000000
    117.878267     198.525442     123.323069       0.000000
    107.572394     204.389996     118.927713       0.000000
     99.136202     199.248622     117.537904       0.000000
    106.927312     235.101495     112.041725       0.000000
    105.322647     223.045998     113.536881       0.000000
    103.011607     258.564503     112.763054       0.000000
    102.765177     269.722259     115.288247       0.000000
     93.459935     278.848387     120.318518       0.000000
     98.299741     291.028176     122.322811       0.000000
    112.156289     285.975943     117.367445       0.000000
    106.562558     295.124583     119.444543       0.000000
     89.080883     297.940522     123.858760       0.000000
     98.269395     300.142217     123.482798       0.000000
     97.614024     329.360380     124.552357       0.000000
    115.430983     344.144440     123.081903       0.000000
     93.629416     339.454976     125.163673       0.000000
    101.240691     346.022406     123.928061       0.000000
     90.310622     362.895347     131.346515       0.000000
     98.664219     367.661414     129.040122       0.000000
     89.545170     383.804491     132.644600       0.000000
    109.940158     381.157859     124.970967       0.000000
    102.952830     386.824019     126.837631       0.000000
     98.907128     404.691478     127.321703       0.000000
     92.516311     413.861884     127.848052       0.000000
    111.894653     419.066787     120.952678       0.000000
    102.661255     426.471287     123.828443       0.000000
    105.388237     454.728558     123.019102       0.000000
     98.763941     461.445004     125.190758       0.000000
     93.894701     453.120849     125.380052       0.000000
    100.921333     479.960553     125.202726       0.000000
    106.005631     490.814626     124.354499       0.000000
    100.000000     500.000000     124.529836       0.000000
    110.000000      10.000000     124.321794       0.000000
    112.792295      18.716475     125.016581       0.000000
    107.104529      29.861722     125.281183       0.000000
    118.487951      29.886190     126.676087       0.000000
    114.298028      49.064724     129.483745       0.000000
    113.680115      59.102521     130.633448       0.000000
    112.751917      70.287696     131.983051       0.000000
    108.191734      79.237074     130.717359       0.000000
    117.212169      81.018781     131.109415       0.000000
    107.447314      97.513821     128.746269       0.000000
    113.574240     127.344578     126.570506       0.000000
    110.696348     110.262730     127.588972       0.000000
    117.179912     135.795383     125.714994       0.000000
    103.596989     138.045981     122.090300       0.000000
    107.938491     146.983336     122.338397       0.000000
    122.524586     169.904910     128.223409       0.000000
    106.740663     160.519726     123.814999       0.000000
    102.569921     169.051541     122.386326       0.000000
    104.124592     178.764848     120.754308       0.000000
    129.042020     199.620106     125.644280       0.000000
    109.875718     213.708706     117.460240       0.000000
    115.295367     222.084935     116.318604       0.000000
     94.719626     222.168212     115.725032       0.000000
     89.083477     252.188398     114.490874       0.000000
    117.111877     255.455637     112.107099       0.000000
    125.698329     258.454585     112.892539       0.000000
    111.267861     275.923520     115.196555       0.000000
    120.641767     292.842894     117.777935       0.000000
    114.769507     301.356927     119.792969       0.000000
    108.340890     308.350137     122.392519       0.000000
    105.039838     317.458121     122.436589       0.000000
    105.349352     337.292124     123.251210       0.000000
    122.335661     336.776740     122.082784       0.000000
    113.963244     333.080046     122.664180       0.000000
    109.415315     351.609466     124.418283       0.000000
    100.503766     357.367221     128.568274       0.000000
    108.337579     364.726432     127.688737       0.000000
    105.078231     373.846753     127.195207       0.000000
    110.610845     391.868723     123.884931       0.000000
    106.043233     399.980506     123.750076       0.000000
    102.140766     414.616418     124.916630       0.000000
    108.706081     408.387931     121.564762       0.000000
    121.297918     429.209721     118.789975       0.000000
    112.283028     430.236941     121.798390       0.000000
     97.713917     443.838488     123.216572       0.000000
    111.997670     461.951714     121.312026       0.000000
    129.410873     481.287770     121.084682       0.000000
    102.697470     469.912060     124.595891       0.000000
    110.894549     483.175590     124.204468       0.000000
    110.000000     500.000000     124.177472       0.000000
    120.000000      10.000000     125.292162       0.000000
    123.010378      20.539760     126.022045       0.000000
    132.935107      26.875357     126.930964       0.000000
    112.766544      39.159451     127.250179       0.000000
    128.946102      50.228332     127.223894       0.000000
    137.027757      59.305415     128.985674       0.000000
    134.389852      69.179988     130.729567       0.000000
    124.176851      73.134965     131.933174       0.000000
    116.143843      92.537715     129.116059       0.000000
    116.489587     102.628867     129.297097       0.000000
    109.408974     119.268565     126.639680       0.000000
    122.431195     126.081840     128.187410       0.000000
    138.788411     123.099315     128.682188       0.000000
     99.154348     150.004446     121.194889       0.000000
    115.107690     156.590889     125.753364       0.000000
    140.026792     154.830591     131.393270       0.000000
    113.812319     176.704863     123.254780       0.000000
    112.799898     167.964478     125.188384       0.000000
    136.302515     205.358670     126.214615       0.000000
    116.006924     207.565397     119.953100       0.000000
    127.187482     216.981767     119.303246       0.000000
    126.264408     225.967839     116.578674       0.000000
    126.390613     234.857019     113.757262       0.000000
     99.570265     243.584592     110.897534       0.000000
    108.913633     248.121801     112.482490       0.000000
    111.228868     263.332463     113.346026       0.000000
    124.405483     249.317081     111.972540       0.000000
    118.397811     268.977078     114.166169       0.000000
    128.696448     287.066447     116.668603       0.000000
    130.210644     302.254456     119.057655       0.000000
    114.659605     319.482395     121.886589       0.000000
     95.858929     318.626589     123.301146       0.000000
    121.358873     326.955116     122.453299       0.000000
    132.021994     351.384621     126.050176       0.000000
    125.062696     345.585017     124.267391       0.000000
    118.182707     355.208842     125.875551       0.000000
    129.825509     386.446415     124.316486       0.000000
    123.358063     362.621161     127.025638       0.000000
    117.562643     372.046549     126.298442       0.000000
    116.415706     401.682965     120.506451       0.000000
    122.211397     409.606666     119.231375       0.000000
    120.729074     418.582573     119.017186       0.000000
    128.717458     434.691754     117.537053       0.000000
     96.142113     434.308851     124.468561       0.000000
    108.301342     446.182927     122.178000       0.000000
    112.458514     473.969571     123.890019       0.000000
    126.837900     472.209467     119.800739       0.000000
    138.929878     482.336896     121.018831       0.000000
    115.402241     492.115590     124.413586       0.000000
    120.000000     500.000000     124.819385       0.000000
    130.000000      10.000000     126.091318       0.000000
    138.519407      19.484498     126.543229       0.000000
    127.310678      34.654880     126.919747       0.000000
    145.669447      55.748668     128.275422       0.000000
    121.094719      43.026827     127.753975       0.000000
    132.626639      79.229219     130.810131       0.000000
    123.550602      60.423964     129.591006       0.000000
    126.280015      86.675356     130.238891       0.000000
    125.403528      95.730190     129.345214       0.000000
    119.360134     114.218581     128.135443       0.000000
    128.832538     119.409612     128.878213       0.000000
    142.025465     133.240193     130.255785       0.000000
    131.325536     129.625784     128.935654       0.000000
    121.148094     145.725740     127.703877       0.000000
    122.936450     160.709069     128.308749       0.000000
    134.127709     161.828299     129.661813       0.000000
    124.701627     179.537782     129.395410       0.000000
    111.577557     185.548945     121.817381       0.000000
    137.976081     196.769996     128.340269       0.000000
    145.770292     205.023987     127.932420       0.000000
    127.571234     208.302025     123.766677       0.000000
    136.545806     214.958858     123.070678       0.000000
    135.099778     232.403638     116.975591       0.000000
    131.919113     243.575188     112.720472       0.000000
    117.267285     230.993449     115.084430       0.000000
    117.218242     243.499097     111.989893       0.000000
    135.401421     262.427907     112.757409       0.000000
    134.390745     279.457768     117.021431       0.000000
    137.449963     288.659392     118.189567       0.000000
    133.644452     324.450748     123.162926       0.000000
    141.289195     300.755103     120.686142       0.000000
    107.894999     326.209015     122.144750       0.000000
    122.626060     307.860979     121.137964       0.000000
    132.734398     365.684537     129.050635       0.000000
    127.530786     374.190002     126.477806       0.000000
    136.504226     379.018754     128.736058       0.000000
    145.793581     381.006495     132.465783       0.000000
    121.278206     380.861221     124.103883       0.000000
    121.278114     390.824258     121.382937       0.000000
    125.925593     400.661288     119.948119       0.000000
    134.971490     405.192030     123.034825       0.000000
    131.132894     414.001799     121.310180       0.000000
    117.070162     438.338450     120.408413       0.000000
    105.208361     437.452876     123.048404       0.000000
    120.399782     481.170118     122.155255       0.000000
    129.729653     461.673995     117.381696       0.000000
    121.356731     465.018833     120.055641       0.000000
    135.569378     469.515253     118.088606       0.000000
    125.211278     489.011812     123.206237       0.000000
    130.000000     500.000000     124.827518       0.000000
    140.000000      10.000000     125.481781       0.000000
    144.034732      28.284169     127.484610       0.000000
    139.714286      48.872954     127.800927       0.000000
    134.127330      40.856555     126.248677       0.000000
    146.176003      64.967167     129.233980       0.000000
    157.086057      65.593242     128.083197       0.000000
    142.744703      74.549144     130.541443       0.000000
    136.824598      90.918493     128.986531       0.000000
    148.735064      96.193619     131.538874       0.000000
    128.398716     107.146829     130.244890       0.000000
    136.327338     100.956919     130.364116       0.000000
    147.996144     120.215821     129.852163       0.000000
    151.279367     135.267936     130.295061       0.000000
    128.204392     139.404800     129.508304       0.000000
    128.998737     153.739992     130.049958       0.000000
    136.511149     145.632817     129.909549       0.000000
    118.827132     189.360164     125.811066       0.000000
    148.215614     182.352681     132.932812       0.000000
    129.992378     188.261981     128.763742       0.000000
    147.196234     195.009717     129.940847       0.000000
    155.201700     199.185138     129.346221       0.000000
    134.707142     223.552412     119.509514       0.000000
    146.433754     223.905951     121.554858       0.000000
    138.671168     250.742673     113.370793       0.000000
    146.877852     257.175784     115.100999       0.000000
    127.341201     270.638864     114.360767       0.000000
    143.291256     279.234408     119.502108       0.000000
    146.585654     292.716314     120.506507       0.000000
    143.316032     314.783563     122.218382       0.000000
    164.066317     301.757526     126.007242       0.000000
    135.127141     309.954351     121.076783       0.000000
    128.440657     317.043285     122.499361       0.000000
    139.635421     332.006169     124.931267       0.000000
    135.537600     340.775438     124.932855       0.000000
    140.964816     348.301146     126.649741       0.000000
    145.863713     339.058458     126.593324       0.000000
    142.900349     370.539351     131.965680       0.000000
    141.771522     389.033081     127.974931       0.000000
    133.147357     395.352145     122.460815       0.000000
    144.212689     413.427196     124.299421       0.000000
    152.428612     429.271332     119.527582       0.000000
    147.150191     439.230078     116.869057       0.000000
    130.294002     424.016816     118.702485       0.000000
    132.645799     451.962920     117.309958       0.000000
    117.970943     453.286176     120.639807       0.000000
    124.971035     444.023041     118.369190       0.000000
    146.128308     476.036782     119.787850       0.000000
    152.579904     482.192553     121.708004       0.000000
    137.302170     491.463176     123.276278       0.000000
    140.000000     500.000000     124.721379       0.000000
    150.000000      10.000000     125.507458       0.000000
    148.225603      19.168018     126.968169       0.000000
    143.139856      37.725885     125.910344       0.000000
    155.932690      37.849008     128.435585       0.000000
    159.485160      46.284298     128.714959       0.000000
    147.864851      44.915637     128.665109       0.000000
    142.780237      84.075998     130.375280       0.000000
    152.285932      75.478986     130.524240       0.000000
    151.919293      86.954376     130.770324       0.000000
    158.394159      95.028547     129.318721       0.000000
    154.259758     112.327378     131.344022       0.000000
    137.181038     112.395855     129.707042       0.000000
    166.862958     126.041025     133.266009       0.000000
    147.575070     143.972960     131.001157       0.000000
    159.516135     142.712513     131.623737       0.000000
    143.378887     165.375198     131.942385       0.000000
    141.011591     174.556108     132.530210       0.000000
    131.674875     174.008012     130.921893       0.000000
    155.701972     188.149000     132.485768       0.000000
    163.276917     195.006233     129.240338       0.000000
    146.540611     215.144892     124.536960       0.000000
    153.945985     209.807699     126.861317       0.000000
    158.073176     226.881308     118.590597       0.000000
    163.248927     235.046009     117.550637       0.000000
    140.484662     240.485878     115.302944       0.000000
    152.629574     247.863577     114.932600       0.000000
    148.108231     267.869728     115.806955       0.000000
    161.121054     278.108744     123.271646       0.000000
    139.886941     271.222794     114.280969       0.000000
    150.869747     308.026715     122.900415       0.000000
    159.926845     309.750611     123.616428       0.000000
    130.507647     332.951660     122.205691       0.000000
    156.707593     321.221571     123.177721       0.000000
    161.038596     342.694971     128.086651       0.000000
    152.460298     331.204742     124.557035       0.000000
    151.718020     346.178643     128.304216       0.000000
    138.887347     357.712307     129.638626       0.000000
    142.744074     401.027216     126.291280       0.000000
    153.533305     386.441834     133.367613       0.000000
    140.285724     420.661269     120.593902       0.000000
    164.396392     431.609652     119.799368       0.000000
    160.199406     449.135688     114.587990       0.000000
    139.431848     432.107381     118.308456       0.000000
    137.817173     444.264820     117.157751       0.000000
    147.501659     449.470421     115.416905       0.000000
    141.179179     459.243436     116.116670       0.000000
    159.942162     472.835524     118.211707       0.000000
    167.012608     479.663412     121.363931       0.000000
    147.927632     489.877852     122.782206       0.000000
    150.000000     500.000000     124.368318       0.000000
    160.000000      10.000000     126.532713       0.000000
    157.199569      18.597626     127.622056       0.000000
    153.059426      29.070858     128.290201       0.000000
    166.657824      35.234128     129.516713       0.000000
    176.563460      53.036155     126.386111       0.000000
    158.053226      55.880174     127.127236       0.000000
    171.494862      65.746906     126.105490       0.000000
    163.236575      72.288852     127.544436       0.000000
    162.768085      84.564461     128.775204       0.000000
    158.693641     104.523151     130.464248       0.000000
    160.988429     119.002437     133.361967       0.000000
    156.313259     127.506276     131.315121       0.000000
    170.958389     134.751379     135.496288       0.000000
    162.557183     134.004899     132.227267       0.000000
    163.029347     152.086791     131.962615       0.000000
    150.768612     172.431242     134.296964       0.000000
    138.034410     183.084872     130.859572       0.000000
    161.391187     170.454700     133.528165       0.000000
    162.110669     181.063734     133.510752       0.000000
    163.247489     213.607751     121.751677       0.000000
    163.596368     203.802413     125.887287       0.000000
    191.496012     222.287615     117.419219       0.000000
    166.751095     221.966584     119.338441       0.000000
    169.867250     241.709903     120.431602       0.000000
    145.215621     232.674546     118.117413       0.000000
    163.048715     248.723106     117.076933       0.000000
    169.815677     273.462860     125.531260       0.000000
    154.724527     284.489834     122.437818       0.000000
    155.819686     298.687752     123.700762       0.000000
    172.631611     296.795969     128.273224       0.000000
    169.201011     310.293176     126.276808       0.000000
    146.223158     324.815742     123.283879       0.000000
    161.863660     333.094211     126.011146       0.000000
    161.985518     352.580066     131.484643       0.000000
    153.093789     354.926127     130.967665       0.000000
    153.231717     368.131038     134.958575       0.000000
    147.441433     361.896046     131.689669       0.000000
    154.568872     377.678841     135.642377       0.000000
    151.966426     396.788431     129.762104       0.000000
    153.198323     407.624611     126.468127       0.000000
    171.387739     410.995877     126.834939       0.000000
    150.052531     420.754837     122.024992       0.000000
    168.909061     439.666511     116.791716       0.000000
    178.865825     438.775347     118.561712       0.000000
    169.119511     450.742324     114.964869       0.000000
    175.759903     458.408024     115.675483       0.000000
    154.189983     458.232176     115.358530       0.000000
    169.658973     471.299973     118.960063       0.000000
    160.127136     489.359214     124.245725       0.000000
    160.000000     500.000000     125.498969       0.000000
    170.000000      10.000000     126.636108       0.000000
    161.947396      26.609932     128.390792       0.000000
    174.964536      27.702294     127.586417       0.000000
    186.055566      36.892257     125.971554       0.000000
    176.500457      38.849325     127.702350       0.000000
    169.055009      45.092513     128.384173       0.000000
    166.953711      57.812426     126.264279       0.000000
    171.240861      77.784191     127.087869       0.000000
    171.465589      87.808219     128.170655       0.000000
    168.131013      98.281886     130.105693       0.000000
    186.467647     121.917527     134.220917       0.000000
    144.396538     106.562693     131.255753       0.000000
    170.444866     117.679027     132.911272       0.000000
    168.517317     143.506753     134.252098       0.000000
    154.106935     161.872633     133.748132       0.000000
    149.563841     153.900665     132.960070       0.000000
    182.779431     175.405272     130.968970       0.000000
    171.120541     171.768030     132.890598       0.000000
    169.208730     188.699018     131.768002       0.000000
    172.427632     198.537569     127.153196       0.000000
    154.978212     218.600704     121.676580       0.000000
    183.073137     218.604589     118.398658       0.000000
    173.395995     228.799390     118.575559       0.000000
    164.858946     258.033874     119.994643       0.000000
    153.852849     238.041499     116.693276       0.000000
    153.066683     274.264958     119.908699       0.000000
    162.328129     268.302840     122.460142       0.000000
    174.214472     283.306726     130.276796       0.000000
    164.700338     288.040024     126.304195       0.000000
    179.980709     290.526657     130.397292       0.000000
    177.749870     304.260841     127.536869       0.000000
    166.567140     318.692906     123.695135       0.000000
    170.740731     340.883699     128.036763       0.000000
    172.252781     351.774090     132.480357       0.000000
    165.570382     362.479612     135.208355       0.000000
    173.255898     368.917114     136.652758       0.000000
    163.392362     376.200142     138.147942       0.000000
    162.717452     385.479468     137.270708       0.000000
    161.715346     394.320337     134.498259       0.000000
    160.497301     402.247105     130.209974       0.000000
    162.367554     413.315623     126.185052       0.000000
    181.252252     404.491945     128.627333       0.000000
    161.074166     423.085220     122.852879       0.000000
    158.098515     440.149941     114.847256       0.000000
    185.089440     456.445752     115.994959       0.000000
    148.705304     468.029854     115.990271       0.000000
    194.591881     455.411445     117.527463       0.000000
    177.142884     479.224312     121.399980       0.000000
    169.295585     489.939055     123.996181       0.000000
    170.000000     500.000000     125.619865       0.000000
    180.000000      10.000000     126.573651       0.000000
    167.803653      19.053963     128.170818       0.000000
    177.703092      19.120650     126.627203       0.000000
    184.140335      27.755233     127.636314       0.000000
    183.555228      46.911607     126.062622       0.000000
    180.315723      62.842075     125.014714       0.000000
    179.840518      92.065050     127.209207       0.000000
    188.297865      95.858299     127.113160       0.000000
    166.953195     109.303337     132.277909       0.000000
    179.325331     113.965270     131.899001       0.000000
    192.675668     115.400205     133.333020       0.000000
    190.396341     132.123552     134.266371       0.000000
    177.660348     125.300542     134.598611       0.000000
    178.001033     144.766196     134.751503       0.000000
    172.008178     153.369082     132.825480       0.000000
    166.580192     162.584917     132.852325       0.000000
    176.970584     182.673554     131.548858       0.000000
    180.265578     192.258331     127.239376       0.000000
    173.344859     206.980356     121.642126       0.000000
    174.066544     215.742755     119.489641       0.000000
    185.454301     209.642535     118.619733       0.000000
    194.510626     210.660339     116.541405       0.000000
    198.447453     228.456044     117.436563       0.000000
    180.630511     237.346673     120.668471       0.000000
    171.071391     264.202919     122.915757       0.000000
    156.422984     260.637046     118.080334       0.000000
    179.096432     270.768590     127.121270       0.000000
    188.989870     287.139422     130.203243       0.000000
    187.166721     296.650314     129.976328       0.000000
    187.144534     306.224917     126.890001       0.000000
    185.698428     315.302946     124.939280       0.000000
    176.282184     318.969032     126.307269       0.000000
    171.431299     330.865613     125.472346       0.000000
    179.758493     342.531221     127.676787       0.000000
    181.528695     353.266975     132.719113       0.000000
    187.874211     369.193781     132.957052       0.000000
    180.874879     374.980689     134.345749       0.000000
    172.995692     378.573605     137.393303       0.000000
    172.983019     401.225220     131.589499       0.000000
    170.460500     392.138835     133.860879       0.000000
    191.225087     390.787051     129.395497       0.000000
    190.624326     400.059724     127.096894       0.000000
    171.417935     421.978484     124.586527       0.000000
    173.745171     430.216202     121.299293       0.000000
    163.102189     463.071048     116.136310       0.000000
    188.508416     445.963677     116.496358       0.000000
    193.226265     468.163591     119.659787       0.000000
    181.381049     468.151692     118.282826       0.000000
    180.799785     489.255462     125.631528       0.000000
    180.000000     500.000000     126.240028       0.000000
    190.000000      10.000000     125.714361       0.000000
    188.553752      19.414465     126.289198       0.000000
    202.387531      37.679661     123.791484       0.000000
    197.545140      51.407103     123.539879       0.000000
    188.627634      67.183149     122.439360       0.000000
    188.619816      58.109153     122.715069       0.000000
    179.328946      82.993633     126.460548       0.000000
    188.550026      86.126262     125.775730       0.000000
    197.724981      94.241612     127.409255       0.000000
    177.174240     101.734626     128.117430       0.000000
    186.570906     108.413795     130.845471       0.000000
    200.958179     131.884493     132.965623       0.000000
    181.058953     133.826036     135.026868       0.000000
    196.383794     156.794525     128.944598       0.000000
    192.004082     174.766523     129.617585       0.000000
    204.407271     178.074598     125.697654       0.000000
    203.056861     188.252079     121.557897       0.000000
    188.289372     187.230665     127.335830       0.000000
    197.113231     183.298223     126.445794       0.000000
    195.081107     192.487884     122.922449       0.000000
    183.774870     200.741974     120.546879       0.000000
    201.245242     198.204432     118.674667       0.000000
    200.057497     217.821917     115.494986       0.000000
    186.538199     245.314406     122.326937       0.000000
    195.121526     249.845753     123.461457       0.000000
    180.367321     262.150427     124.590674       0.000000
    206.663613     268.961271     128.108015       0.000000
    197.012158     274.564349     129.265480       0.000000
    207.004607     293.261494     128.806633       0.000000
    197.739063     283.567914     130.384092       0.000000
    186.763573     324.924883     124.073516       0.000000
    192.482482     332.948176     124.511220       0.000000
    182.401442     333.187599     125.612107       0.000000
    189.360701     342.644165     125.966167       0.000000
    197.080875     351.372367     128.284424       0.000000
    180.899240     362.207530     135.011003       0.000000
    196.586272     364.098643     130.040698       0.000000
    186.137248     382.589639     132.989551       0.000000
    178.293543     386.604271     134.887767       0.000000
    180.330204     395.191823     130.973867       0.000000
    197.941476     410.184068     122.585463       0.000000
    180.613811     416.374618     125.560833       0.000000
    188.195177     409.155657     124.630971       0.000000
    182.254739     426.329159     122.375593       0.000000
    178.475100     449.751846     116.606868       0.000000
    201.099151     448.600925     118.448610       0.000000
    195.348820     479.412440     124.493865       0.000000
    186.076159     478.880807     123.068742       0.000000
    189.979532     489.894504     126.133766       0.000000
    190.000000     500.000000     126.157340       0.000000
    200.000000      10.000000     125.394630       0.000000
    203.054777      19.797166     124.621651       0.000000
    193.815923      41.437924     125.040411       0.000000
    196.454704      27.645526     125.349070       0.000000
    198.290610      60.396010     120.592183       0.000000
    178.356783      72.507859     125.155165       0.000000
    187.658415      76.205291     124.152416       0.000000
    210.155259      89.293162     125.310323       0.000000
    197.652706      84.257649     124.531062       0.000000
    206.408539      98.354903     128.730636       0.000000
    198.431634     104.820584     130.145685       0.000000
    205.159514     121.677474     133.365315       0.000000
    187.213860     142.532271     133.349420       0.000000
    184.739090     152.422821     132.542462       0.000000
    197.772594     144.630455     131.822618       0.000000
    210.469911     162.555692     126.331560       0.000000
    179.255352     162.489644     131.954408       0.000000
    220.574853     176.851797     120.308920       0.000000
    218.571669     193.897563     116.678952       0.000000
    212.613552     183.050828     121.504341       0.000000
    214.760807     203.340208     113.730442       0.000000
    192.726312     202.021880     118.906743       0.000000
    204.209139     206.420438     115.193696       0.000000
    184.506505     228.056196     118.641133       0.000000
    201.086928     241.242953     120.025866       0.000000
    192.439579     237.965650     119.827204       0.000000
    174.737794     250.352225     120.534667       0.000000
    188.204255     277.182144     129.908277       0.000000
    191.544405     266.205058     127.264319       0.000000
    196.346528     296.496434     129.522068       0.000000
    196.589112     322.635675     123.320907       0.000000
    204.554414     327.155627     121.258770       0.000000
    214.993493     326.869672     120.930334       0.000000
    198.950340     339.289155     124.371791       0.000000
    205.329612     347.354128     125.888181       0.000000
    190.111492     357.061497     131.660248       0.000000
    208.613294     379.405400     124.873383       0.000000
    199.559031     387.233033     127.373569       0.000000
    194.413986     377.328149     130.895780       0.000000
    208.573498     402.255856     122.816321       0.000000
    199.649107     401.141204     124.426298       0.000000
    198.540287     419.506048     120.578364       0.000000
    199.970050     428.310850     119.134798       0.000000
    189.025643     420.019906     121.662359       0.000000
    187.930732     434.083268     120.982370       0.000000
    200.394161     463.049577     117.577860       0.000000
    204.177312     472.815568     120.299311       0.000000
    206.126542     481.946677     122.333327       0.000000
    198.944487     488.843021     125.277785       0.000000
    200.000000     500.000000     126.088618       0.000000
    210.000000      10.000000     125.247907       0.000000
    215.366157      22.436505     124.708029       0.000000
    225.595179      38.893660     119.372987       0.000000
    208.118971      27.868615     124.619687       0.000000
    207.945194      58.912598     119.575528       0.000000
    196.452394      74.048511     122.450949       0.000000
    227.330217      68.052365     115.990048       0.000000
    206.072970      79.124793     121.870902       0.000000
    231.363523      83.113054     117.687531       0.000000
    215.389065      96.750142     127.518248       0.000000
    212.772865     106.968437     130.580160       0.000000
    204.358336     111.839920     132.182816       0.000000
    195.622945     124.246553     134.536332       0.000000
    205.570202     139.966013     132.052276       0.000000
    213.997733     142.766734     130.314321       0.000000
    188.950319     166.143104     130.821539       0.000000
    211.930083     173.257922     124.455919       0.000000
    219.775658     165.425784     123.375818       0.000000
    229.794548     194.142113     114.047557       0.000000
    209.876130     195.355837     118.488176       0.000000
    221.455980     210.555800     111.667263       0.000000
    223.790879     200.883064     113.421023       0.000000
    207.954890     222.691074     113.742061       0.000000
    207.255574     231.614371     115.954877       0.000000
    208.552495     248.311674     120.156620       0.000000
    205.811529     256.157241     123.735471       0.000000
    187.218865     254.850917     124.119001       0.000000
    214.535702     274.759094     129.172173       0.000000
    215.627188     288.608427     129.351060       0.000000
    203.963654     304.679627     125.684992       0.000000
    195.985071     308.973219     125.105364       0.000000
    204.508369     314.771568     121.930312       0.000000
    224.138549     320.821237     119.924536       0.000000
    208.320066     338.084059     121.989590       0.000000
    213.684272     346.257315     122.361118       0.000000
    205.300494     358.666550     126.264740       0.000000
    213.802116     387.800780     124.898937       0.000000
    206.234002     393.195431     125.087987       0.000000
    232.034506     394.291784     123.454524       0.000000
    217.531074     396.333446     124.737839       0.000000
    207.268878     411.481521     121.382181       0.000000
    220.179205     419.005001     119.761483       0.000000
    195.677004     439.171563     119.285638       0.000000
    209.388960     444.676687     118.175837       0.000000
    219.956349     446.493599     117.300331       0.000000
    209.108663     455.383309     117.046480       0.000000
    215.451240     464.095094     117.637484       0.000000
    215.333895     481.786133     120.801496       0.000000
    208.973874     491.132112     123.499288       0.000000
    210.000000     500.000000     125.050903       0.000000
    220.000000      10.000000     124.647576       0.000000
    228.164858      19.224662     123.324976       0.000000
    221.485855      30.281229     122.912419       0.000000
    213.546797      39.116629     122.277536       0.000000
    207.685871      48.539592     121.126028       0.000000
    207.104387      70.094023     120.476810       0.000000
    235.266431      63.068987     115.007661       0.000000
    217.042821      69.889225     119.432175       0.000000
    214.857013      81.893049     121.332025       0.000000
    219.412282      89.630805     123.665428       0.000000
    222.179007     110.114984     128.636732       0.000000
    216.367414     118.980981     131.295232       0.000000
    212.630415     127.735392     132.313378       0.000000
    223.055103     132.490084     129.171901       0.000000
    224.787497     146.400773     129.002898       0.000000
    205.088224     152.827476     128.768508       0.000000
    200.177110     168.227343     127.530101       0.000000
    223.980550     186.603637     116.131947       0.000000
    231.199084     180.655967     115.841266       0.000000
    233.928042     201.986172     111.899208       0.000000
    220.069642     221.065831     112.582138       0.000000
    212.282293     212.138957     111.561762       0.000000
    216.856760     231.436707     114.185471       0.000000
    212.601533     240.181750     116.539811       0.000000
    216.809663     252.968901     121.357058       0.000000
    232.412845     264.528621     126.679427       0.000000
    197.578215     259.496346     125.866550       0.000000
    207.295594     281.593318     130.423258       0.000000
    223.342760     276.738139     128.977979       0.000000
    211.914342     307.306110     122.228193       0.000000
    219.137897     301.505029     124.521888       0.000000
    233.117512     319.768882     121.909730       0.000000
    214.237603     317.140256     120.243671       0.000000
    227.091305     329.992171     119.758381       0.000000
    223.772133     338.276025     120.943861       0.000000
    214.458479     356.715790     122.486339       0.000000
    205.835924     368.320634     126.449948       0.000000
    224.448885     386.412676     123.904131       0.000000
    224.375884     402.437726     122.974388       0.000000
    216.879733     407.714302     121.961348       0.000000
    207.628302     420.316371     119.161448       0.000000
    206.832856     434.349325     118.425584       0.000000
    215.103207     428.439913     118.064973       0.000000
    225.438537     438.024594     116.770519       0.000000
    216.049204     437.900923     118.251698       0.000000
    222.837830     457.129613     115.860800       0.000000
    217.523179     473.258554     118.661141       0.000000
    228.640378     480.908027     121.282955       0.000000
    218.265986     490.314890     123.524410       0.000000
    220.000000     500.000000     123.728912       0.000000
    230.000000      10.000000     123.119068       0.000000
    237.777250      19.229103     121.503045       0.000000
    234.966074      35.840581     117.642075       0.000000
    220.918869      47.104359     119.054072       0.000000
    230.695816      54.367338     117.445547       0.000000
    217.322728      60.342597     117.882491       0.000000
    245.853591      62.104521     115.612576       0.000000
    224.002952      76.533809     118.683522       0.000000
    234.902405      73.024614     115.021839       0.000000
    224.134894     101.192772     127.274061       0.000000
    232.851367     105.213313     124.303421       0.000000
    233.031200     128.716636     128.304642       0.000000
    225.443456     123.641241     129.077018       0.000000
    231.069120     139.217737     128.850560       0.000000
    219.361926     154.963171     126.250287       0.000000
    228.647042     157.687332     124.628810       0.000000
    230.194579     168.562797     120.152556       0.000000
    246.427737     167.204702     117.140812       0.000000
    251.321994     190.235221     111.037194       0.000000
    237.425702     187.012416     113.088617       0.000000
    240.809395     210.605064     109.964440       0.000000
    239.110870     220.792734     110.733965       0.000000
    225.018133     244.923045     121.001589       0.000000
    224.725677     256.991407     123.279160       0.000000
    233.240981     253.830785     124.207097       0.000000
    242.038193     261.965028     126.451106       0.000000
    232.981457     273.535718     127.729977       0.000000
    212.992438     262.248779     125.610110       0.000000
    234.363382     292.020751     126.786899       0.000000
    229.156418     299.350620     125.080404       0.000000
    223.276974     311.411445     122.856202       0.000000
    249.407535     330.581867     119.629042       0.000000
    239.552966     331.244614     119.170605       0.000000
    233.702707     339.311532     118.429551       0.000000
    214.322280     366.565919     123.654865       0.000000
    245.475900     362.646633     120.859635       0.000000
    231.740858     365.065730     121.348284       0.000000
    219.121158     378.326974     123.422671       0.000000
    228.645177     376.415137     123.585342       0.000000
    241.023780     391.891264     123.574233       0.000000
    236.299547     418.441110     122.829277       0.000000
    246.163809     415.933257     125.072563       0.000000
    228.131640     423.645988     121.574237       0.000000
    233.594265     431.831090     119.515032       0.000000
    229.991681     450.375296     116.270789       0.000000
    245.728802     459.201178     116.542690       0.000000
    224.300054     467.209505     117.351679       0.000000
    237.898265     480.658870     120.282360       0.000000
    230.250039     490.890790     123.218516       0.000000
    230.000000     500.000000     123.551492       0.000000
    240.000000      10.000000     122.126905       0.000000
    232.217188      27.195917     121.020133       0.000000
    235.315727      45.020457     117.916935       0.000000
    253.515719      43.520200     118.133246       0.000000
    243.990198      39.334928     117.962426       0.000000
    245.170734      52.612872     116.436526       0.000000
    260.776921      65.756872     117.661348       0.000000
    243.871224      75.295404     115.659137       0.000000
    248.651744      90.656845     121.309270       0.000000
    240.438111      83.805487     118.155324       0.000000
    228.060050      91.679869     120.975763       0.000000
    230.888369     114.105461     127.037981       0.000000
    236.234606     146.910057     126.638007       0.000000
    251.460106     141.005111     128.381728       0.000000
    245.221953     147.655311     125.253597       0.000000
    237.583685     155.782740     124.696632       0.000000
    239.140759     175.507962     115.623870       0.000000
    250.241530     180.701895     114.179930       0.000000
    271.007888     180.955931     114.652453       0.000000
    243.310809     196.632867     111.101763       0.000000
    231.785254     212.315739     108.546302       0.000000
    229.684517     224.784559     112.099858       0.000000
    225.767281     236.738592     117.144394       0.000000
    236.888923     243.216732     119.513391       0.000000
    243.210401     249.431726     122.539295       0.000000
    252.176644     266.326880     129.523773       0.000000
    244.767145     273.517186     128.313577       0.000000
    221.742660     266.538389     126.947404       0.000000
    224.655515     291.276985     128.025075       0.000000
    231.774597     308.208054     124.028157       0.000000
    238.577942     301.149641     123.848459       0.000000
    240.673398     313.901957     122.393807       0.000000
    234.426048     348.937074     118.472800       0.000000
    223.291362     347.643411     120.020496       0.000000
    224.910575     358.946301     121.730802       0.000000
    256.694423     366.506383     124.976180       0.000000
    264.230853     359.028297     124.782511       0.000000
    223.499289     369.004122     122.749770       0.000000
    235.027158     383.676706     123.336632       0.000000
    226.114487     411.292419     122.555519       0.000000
    234.754760     403.852443     122.672515       0.000000
    255.179868     417.251618     127.726400       0.000000
    241.951341     429.087248     121.900181       0.000000
    234.535511     441.729474     117.616128       0.000000
    231.921551     460.894854     116.579447       0.000000
    239.095354     451.093861     116.337959       0.000000
    232.527816     472.966482     118.932445       0.000000
    248.744960     479.577405     119.241666       0.000000
    239.958766     490.318629     122.345347       0.000000
    240.000000     500.000000     122.047750       0.000000
    250.000000      10.000000     120.452908       0.000000
    246.973196      20.209086     119.757779       0.000000
    258.705989      27.158911     119.501222       0.000000
    243.869212      29.779992     118.715998       0.000000
    252.118431      69.302823     115.799616       0.000000
    255.580978      52.491986     118.250326       0.000000
    264.565277      73.849111     120.781171       0.000000
    257.430091      94.923905     123.998279       0.000000
    268.184143      93.948785     127.391435       0.000000
    237.551945      98.052097     120.840120       0.000000
    244.142911     108.939885     125.927918       0.000000
    240.703016     138.318356     128.478017       0.000000
    242.573865     128.999567     128.771357       0.000000
    261.829153     137.827360     130.737762       0.000000
    256.374677     148.713773     126.436169       0.000000
    246.621858     156.741798     122.616900       0.000000
    238.096222     164.191206     120.344956       0.000000
    258.550596     161.275575     122.307060       0.000000
    260.071037     178.350075     116.119391       0.000000
    260.695130     190.583924     113.687869       0.000000
    250.749528     202.579547     111.843668       0.000000
    250.189819     216.434402     112.296861       0.000000
    237.608937     230.393307     113.994042       0.000000
    246.683462     235.830170     117.378312       0.000000
    249.831248     255.457108     126.290241       0.000000
    260.760075     263.894068     127.971353       0.000000
    239.502854     284.401711     127.652480       0.000000
    230.068925     283.223723     128.733853       0.000000
    246.723823     290.679022     126.261138       0.000000
    246.451391     305.381715     122.373860       0.000000
    255.279160     301.435628     123.921418       0.000000
    252.323905     315.821858     121.337271       0.000000
    259.960517     331.723065     119.758342       0.000000
    244.595767     341.063462     117.554198       0.000000
    237.700770     358.108118     119.267324       0.000000
    254.419753     356.888117     121.622591       0.000000
    264.009889     372.393056     128.090104       0.000000
