    225.767714     103.068718     125.833934       0.000000
    234.663957     105.172616     125.857181       0.000000
    235.221135     126.823781     128.961695       0.000000
    226.031385     122.427864     130.416371       0.000000
    232.047245     135.230740     127.423118       0.000000
    220.682664     152.872704     127.470162       0.000000
    229.199597     158.425023     124.395412       0.000000
    231.056653     171.383073     118.955535       0.000000
    246.626836     168.244746     117.369683       0.000000
    249.935076     191.114324     112.257345       0.000000
    238.494582     183.783125     113.195023       0.000000
    241.184580     208.291760     111.260203       0.000000
    240.684725     219.191169     110.643098       0.000000
    224.999342     244.876552     118.452625       0.000000
    227.322264     253.123532     121.905785       0.000000
    236.248418     255.073546     124.059935       0.000000
    241.115706     261.908706     127.317337       0.000000
    234.598711     272.422083     129.080065       0.000000
    211.988774     262.786131     126.426114       0.000000
    234.419070     291.418211     126.406623       0.000000
    229.645362     301.997175     125.109596       0.000000
    223.351439     308.596581     125.529451       0.000000
    249.474784     331.738700     120.283134       0.000000
    238.775267     328.108073     119.361370       0.000000
    231.078227     335.479097     119.501042       0.000000
    216.412209     367.595044     123.770175       0.000000
    245.008144     364.830645     121.922685       0.000000
    233.418565     362.935205     121.789020       0.000000
    216.514224     377.093695     124.244378       0.000000
    226.795432     378.646912     123.456046       0.000000
    241.704662     393.332058     124.189040       0.000000
    235.375740     416.232308     124.097113       0.000000
    245.913191     418.550628     124.031587       0.000000
    229.101652     425.075316     120.652586       0.000000
    232.688303     434.101809     117.624120       0.000000
    228.113626     450.605678     115.311967       0.000000
    244.227696     459.376523     117.168335       0.000000
    223.635716     468.355889     119.467067       0.000000
    237.043178     482.232891     119.287855       0.000000
    227.125718     489.541298     120.706681       0.000000
    230.000000     500.000000     121.725715       0.000000
    240.000000      10.000000     121.626185       0.000000
    231.686695      26.598693     121.042559       0.000000
    232.643046      44.454165     117.521111       0.000000
    249.907870      46.011432     117.333450       0.000000
    241.384504      40.207274     117.615125       0.000000
    239.028405      54.085975     117.578823       0.000000
    255.609450      63.538449     117.748557       0.000000
    243.519325      76.461391     116.396539       0.000000
    247.412330      90.854459     119.786546       0.000000
    238.927534      87.099261     119.100298       0.000000
    230.058474      94.571510     122.895381       0.000000
    231.172226     113.598626     128.798611       0.000000
    236.376700     144.009093     126.711983       0.000000
    252.246941     139.854319     127.409880       0.000000
    245.935693     146.317365     125.514475       0.000000
    237.623322     154.031945     123.633147       0.000000
    239.722851     175.150076     115.770423       0.000000
    248.688635     180.554660     114.372659       0.000000
    268.985505     182.190548     116.226685       0.000000
    243.346877     197.863710     110.020875       0.000000
    230.671387     214.032969     109.968583       0.000000
    229.462833     225.145728     112.708709       0.000000
    227.787151     235.887844     114.683071       0.000000
    235.715797     241.143236     117.294436       0.000000
    243.200776     246.030648     122.091429       0.000000
    248.672777     267.873947     128.255940       0.000000
    243.313853     274.983313     129.829020       0.000000
    220.811579     265.504605     127.882566       0.000000
    225.526321     289.221410     127.085186       0.000000
    232.492074     311.666925     123.209774       0.000000
    239.187456     303.087812     123.562441       0.000000
    241.817305     313.875333     122.175988       0.000000
    233.732191     344.065523     120.316335       0.000000
    224.808421     346.789766     120.936999       0.000000
    224.238046     356.462382     121.119932       0.000000
    255.438926     369.213556     125.484619       0.000000
    262.846527     356.260067     123.960959       0.000000
    226.674229     369.954226     120.594307       0.000000
    236.433273     384.046686     122.846139       0.000000
    226.697820     412.832027     123.301545       0.000000
    234.967022     402.792395     125.743571       0.000000
    254.873454     416.517259     127.756466       0.000000
    239.942161     428.774252     120.442700       0.000000
    235.650544     442.936286     115.785473       0.000000
    234.027065     460.156170     115.384503       0.000000
    242.705214     449.677401     117.011948       0.000000
    234.654488     472.630506     117.733857       0.000000
    245.470746     478.604830     119.237488       0.000000
    240.492762     491.068979     119.812758       0.000000
    240.000000     500.000000     121.380923       0.000000
    250.000000      10.000000     119.816219       0.000000
    245.365956      22.784954     119.698989       0.000000
    257.353002      28.618679     118.523340       0.000000
    245.799917      32.221115     118.616055       0.000000
    254.443666      74.052998     117.235854       0.000000
    251.160584      55.171902     117.017084       0.000000
    263.202926      76.978785     119.367603       0.000000
    255.720709      94.513769     122.488225       0.000000
    264.567787      95.071194     126.484421       0.000000
    239.298446      96.770428     122.260221       0.000000
    242.756283     110.165735     127.265139       0.000000
    242.247805     137.007141     126.784043       0.000000
    244.715010     127.776661     128.088976       0.000000
    263.332991     136.191799     129.527873       0.000000
    258.767342     151.556467     125.401102       0.000000
    249.003659     158.019056     121.048774       0.000000
    236.833002     163.298947     120.968997       0.000000
    259.123638     161.298763     122.871440       0.000000
    259.841858     183.070694     115.640165       0.000000
    261.514996     191.789256     114.026738       0.000000
    251.166740     202.398542     112.972845       0.000000
    250.480140     217.455562     111.678445       0.000000
    240.281183     229.353763     114.088192       0.000000
    244.969960     237.920978     117.035612       0.000000
    250.987289     257.739135     127.150914       0.000000
    258.700901     264.557106     126.954994       0.000000
    241.523773     284.835148     127.850274       0.000000
    232.660875     282.401220     128.903080       0.000000
    244.952680     293.297830     126.730595       0.000000
    247.895899     306.774773     123.919358       0.000000
    254.567197     300.448189     125.471832       0.000000
    251.029411     315.019686     121.870438       0.000000
    258.518140     332.908735     118.833645       0.000000
    244.699290     340.611463     121.435804       0.000000
    237.588289     353.784362     121.090655       0.000000
    253.345804     358.639254     122.723783       0.000000
    264.301813     374.180465     129.530856       0.000000
    247.949929     374.207215     124.010535       0.000000
    258.267982     389.383836     129.547823       0.000000
    245.330553     405.890736     126.786271       0.000000
    256.547692     405.538165     129.104185       0.000000
    252.273116     426.529104     124.284314       0.000000
    244.700081     440.873995     118.334765       0.000000
    255.894928     447.629950     121.048751       0.000000
    252.628105     455.982273     120.265491       0.000000
    257.086287     469.073929     119.779901       0.000000
    246.457576     468.202338     117.604634       0.000000
    256.066065     478.509872     120.789283       0.000000
    251.333801     487.921423     121.103655       0.000000
    250.000000     500.000000     120.088955       0.000000
    260.000000      10.000000     120.339172       0.000000
    255.076257      18.480276     119.678946       0.000000
    254.871770      38.389297     118.695374       0.000000
    259.991813      47.149516     119.425587       0.000000
    263.228125      58.273375     120.554313       0.000000
    266.789161      67.138112     120.352518       0.000000
    254.733846      83.919662     118.557873       0.000000
    262.284020      86.495633     123.222447       0.000000
    255.592920     108.979451     128.206801       0.000000
    248.549062     102.797681     126.001795       0.000000
    250.594654     119.981690     129.501584       0.000000
    263.530600     113.068517     129.514339       0.000000
    239.326787     118.386902     129.302914       0.000000
    264.305131     126.362726     130.612072       0.000000
    268.924561     157.147940     124.854890       0.000000
    255.538684     175.218446     116.859510       0.000000
    264.249032     169.303686     120.355993       0.000000
    288.604982     178.186443     118.789585       0.000000
    279.653431     182.211558     115.965480       0.000000
    262.671373     203.044256     114.385197       0.000000
    258.590874     223.932086     113.767804       0.000000
    259.520802     212.227897     112.855513       0.000000
    259.339487     235.912638     116.629878       0.000000
    261.580264     244.347255     121.788437       0.000000
    271.674365     256.824968     125.139227       0.000000
    251.932219     244.023860     120.820802       0.000000
    261.540889     255.343240     125.054441       0.000000
    255.411964     290.238744     127.029008       0.000000
    263.039102     283.829425     127.217811       0.000000
    264.405951     298.159171     124.469737       0.000000
    261.125246     309.619100     123.507261       0.000000
    247.278038     322.897932     119.342298       0.000000
    265.316007     317.696495     121.895997       0.000000
    253.855672     340.845530     120.237150       0.000000
    247.886256     349.566678     122.019159       0.000000
    257.004225     349.732831     121.519521       0.000000
    256.899983     380.188812     127.976148       0.000000
    239.115038     371.806873     121.896848       0.000000
    265.963465     383.480985     130.772885       0.000000
    247.199588     384.633634     124.187105       0.000000
    249.916857     396.473091     127.285172       0.000000
    263.541700     418.415793     129.630809       0.000000
    251.933940     435.756274     121.094646       0.000000
    260.529022     439.332359     123.391267       0.000000
    266.788735     452.688009     125.195976       0.000000
    260.778902     460.389098     122.060038       0.000000
    266.461990     467.391955     122.772253       0.000000
    266.047365     478.353871     122.905812       0.000000
    262.389188     487.064927     123.066348       0.000000
    260.000000     500.000000     121.722375       0.000000
    270.000000      10.000000     122.766411       0.000000
    275.543253      18.910484     122.801028       0.000000
    263.538356      21.867690     119.407867       0.000000
    270.583827      27.297011     121.485097       0.000000
    264.706286      36.798656     118.565210       0.000000
    271.895169      49.701817     122.992184       0.000000
    272.640487      59.738832     122.184063       0.000000
    273.802792      75.233689     123.085075       0.000000
    274.451347      94.437764     130.418004       0.000000
    283.500992     102.050754     134.249344       0.000000
    273.605218     126.186536     132.164947       0.000000
    273.837834     137.082591     131.738774       0.000000
    282.459312     126.651715     135.158045       0.000000
    254.605880     128.410237     129.681502       0.000000
    288.996092     133.869716     136.817751       0.000000
    276.238791     164.253841     123.371559       0.000000
    282.823249     170.413941     121.752213       0.000000
    282.089974     201.130913     114.844198       0.000000
    272.207774     203.130011     115.722829       0.000000
    272.276365     193.580737     115.701502       0.000000
    269.200487     211.646502     116.268693       0.000000
    249.099449     227.510296     112.523152       0.000000
    269.692001     221.239129     116.496267       0.000000
    267.620772     231.356091     116.894496       0.000000
    281.980643     256.465283     124.453650       0.000000
    268.371952     265.205753     127.058024       0.000000
    271.099035     247.848538     123.603634       0.000000
    252.318865     277.185708     129.257188       0.000000
    286.542703     298.334326     121.512785       0.000000
    275.412848     300.046940     122.675484       0.000000
    292.137566     310.928872     118.902922       0.000000
    281.653666     308.980075     120.716930       0.000000
    257.839485     323.769679     120.127789       0.000000
    266.940437     348.169770     123.067143       0.000000
    276.834248     353.681778     126.439298       0.000000
    269.969967     366.839678     129.339299       0.000000
    276.087850     373.599862     132.218819       0.000000
    275.596875     384.825352     134.024640       0.000000
    280.196398     396.034099     135.998325       0.000000
    271.529718     393.726870     135.228655       0.000000
    261.739303     397.715040     131.883284       0.000000
    264.327673     409.595332     131.887889       0.000000
    273.308108     419.244087     131.755684       0.000000
    262.301131     428.228023     126.661717       0.000000
    270.352613     434.018472     128.521612       0.000000
    268.424372     443.673915     124.891962       0.000000
    278.418748     461.879860     124.694134       0.000000
    280.187934     479.592577     126.905753       0.000000
    271.183586     487.679146     125.674072       0.000000
    270.000000     500.000000     123.574946       0.000000
    280.000000      10.000000     125.466483       0.000000
    284.090010      19.469556     125.585327       0.000000
    280.511014      28.260968     123.859694       0.000000
    273.910387      36.166138     120.968202       0.000000
    284.534888      52.044253     122.783589       0.000000
    286.458355      61.032380     123.052362       0.000000
    280.139002      67.597279     123.386130       0.000000
    282.300720      78.659371     125.317691       0.000000
    271.302905      86.337121     126.200772       0.000000
    288.405486      94.219639     132.513125       0.000000
    263.958570     103.881331     128.634835       0.000000
    271.395599     116.560439     132.268619       0.000000
    290.486686     152.137900     132.123490       0.000000
    264.829690     144.923041     127.285042       0.000000
    281.841340     141.458706     133.029539       0.000000
    274.427598     146.962120     129.883358       0.000000
    273.268637     173.604336     119.316272       0.000000
    287.547132     162.550585     126.749731       0.000000
    287.944728     213.597804     115.216423       0.000000
    278.103802     210.041965     115.056214       0.000000
    288.823566     225.789434     117.999599       0.000000
    280.649849     221.065945     115.862611       0.000000
    277.153228     229.982779     117.429594       0.000000
    271.072233     239.245111     120.121074       0.000000
    282.659463     246.202767     121.523625       0.000000
    287.383582     268.406564     125.630602       0.000000
    263.079744     273.315245     127.174035       0.000000
    272.926913     277.812153     127.194788       0.000000
    270.998935     291.579005     125.071174       0.000000
    282.747733     287.938044     125.412979       0.000000
    271.837187     310.247171     121.767953       0.000000
    266.403175     328.142143     120.271996       0.000000
    276.322399     329.961198     119.992806       0.000000
    264.970908     339.094446     120.495194       0.000000
    282.019584     345.681907     123.876878       0.000000
    282.419241     365.612842     129.750818       0.000000
    285.194088     375.522817     131.584387       0.000000
    284.810888     385.969150     134.651091       0.000000
    285.804831     405.167618     134.473861       0.000000
    271.804341     402.783642     135.572230       0.000000
    277.758514     409.820770     133.599651       0.000000
    291.004951     428.291608     129.180231       0.000000
    278.229443     427.258569     130.144521       0.000000
    293.441571     437.300105     128.353536       0.000000
    278.565948     441.294417     125.774903       0.000000
    278.303448     451.506461     124.960936       0.000000
    274.269296     471.834160     123.470272       0.000000
    285.534023     470.323477     126.301372       0.000000
    280.414977     488.757446     127.007577       0.000000
    280.000000     500.000000     126.259901       0.000000
    290.000000      10.000000     127.530108       0.000000
    293.150873      19.006290     129.166652       0.000000
    290.921976      30.552633     126.406642       0.000000
    283.284576      39.648900     124.496186       0.000000
    291.914639      42.980688     126.681007       0.000000
    294.872036      51.653648     125.322399       0.000000
    295.609433      60.907546     124.912666       0.000000
    292.321482      84.115436     128.680171       0.000000
    282.433324      87.463869     128.831970       0.000000
    298.361281      90.817699     131.993477       0.000000
    296.096504     104.325163     138.515951       0.000000
    296.253963     113.937707     138.858113       0.000000
    273.825577     103.755447     132.051326       0.000000
    280.941974     115.533735     136.416242       0.000000
    301.386781     149.968060     135.407673       0.000000
    297.629473     160.325019     130.250597       0.000000
    279.079637     155.273839     128.125372       0.000000
    297.982549     180.740568     118.810432       0.000000
    281.736399     191.100455     116.194983       0.000000
    290.803894     202.967422     112.980753       0.000000
    297.905054     210.683502     114.501199       0.000000
    297.781716     233.574463     118.896438       0.000000
    307.479404     236.152292     122.089211       0.000000
    286.428230     238.681321     118.214671       0.000000
    291.511919     249.432773     122.488348       0.000000
    292.457203     260.416148     124.054250       0.000000
    277.110618     269.779181     126.825491       0.000000
    286.027082     278.074556     126.923158       0.000000
    294.574928     293.727398     122.614842       0.000000
    283.395383     318.447973     119.988513       0.000000
    292.287343     320.179011     119.031425       0.000000
    274.644233     320.773909     120.505382       0.000000
    285.838029     328.157911     119.465610       0.000000
    275.331054     339.016017     121.478708       0.000000
    287.727331     338.066079     121.941882       0.000000
    293.082415     345.279998     123.708780       0.000000
    285.281255     357.191893     126.562133       0.000000
    295.819446     366.386200     126.124871       0.000000
    291.366767     397.466986     134.773940       0.000000
    301.441387     397.640037     130.183582       0.000000
    285.029138     417.316356     132.006138       0.000000
    300.503425     424.945871     127.190217       0.000000
    283.748777     433.932514     127.298892       0.000000
    290.239899     447.298521     127.098697       0.000000
    300.505152     444.380989     126.660250       0.000000
    297.191530     454.040790     126.686846       0.000000
    286.577157     456.158386     125.910409       0.000000
    291.740780     479.496992     127.134371       0.000000
    290.555396     488.594277     127.361723       0.000000
    290.000000     500.000000     127.714219       0.000000
    300.000000      10.000000     130.170572       0.000000
    301.467457      30.603609     131.260067       0.000000
    301.574315      40.196454     129.403172       0.000000
    311.318836      42.328871     129.761755       0.000000
    307.050087      59.474023     126.697945       0.000000
    308.714375      71.686020     126.151210       0.000000
    289.923100      73.786481     126.197743       0.000000
    298.898533      71.972810     126.404749       0.000000
    303.730796     100.086709     135.863914       0.000000
    322.773421      94.564421     128.790457       0.000000
    309.985604      89.355168     131.423951       0.000000
    304.455676     110.139006     138.115438       0.000000
    288.366203     109.985526     136.932516       0.000000
    301.449445     130.245999     139.159029       0.000000
    306.659444     157.999195     133.841920       0.000000
    305.323949     166.671781     129.831806       0.000000
    291.752545     171.215606     124.159341       0.000000
    302.211830     173.750424     124.397717       0.000000
    293.216046     191.447179     115.246422       0.000000
    305.844496     205.806693     115.377477       0.000000
    306.468658     215.934324     116.516182       0.000000
    296.047989     219.819076     116.914096       0.000000
    303.694457     226.614107     118.537305       0.000000
    297.896877     242.675593     120.972563       0.000000
    299.474259     253.840369     124.598390       0.000000
    315.117207     265.452158     126.200950       0.000000
    301.933176     267.896162     126.657673       0.000000
    295.876999     275.502312     126.739717       0.000000
    304.316083     295.022248     121.933191       0.000000
    297.847093     303.465272     120.323671       0.000000
    308.517983     303.389525     119.991119       0.000000
    304.410543     324.945629     119.851180       0.000000
    305.501249     335.907477     120.127983       0.000000
    297.113063     331.966298     120.439137       0.000000
    302.283799     344.847163     122.496631       0.000000
    295.462532     354.248684     124.761123       0.000000
    304.157725     362.764204     123.188838       0.000000
    294.340788     375.121904     129.394283       0.000000
    305.023466     383.638627     128.855895       0.000000
    312.805359     387.813037     126.069011       0.000000
    296.200994     406.922074     132.244771       0.000000
    295.021222     416.123757     130.985154       0.000000
    306.375998     433.734761     125.871250       0.000000
    312.037802     444.974222     125.661319       0.000000
    320.752516     450.772952     124.347932       0.000000
    293.278862     462.466489     125.628273       0.000000
    297.798264     470.977310     125.760557       0.000000
    310.672969     490.008873     130.942041       0.000000
    302.304570     482.421737     128.613175       0.000000
    300.000000     500.000000     129.804826       0.000000
    310.000000      10.000000     131.284725       0.000000
    301.995556      20.213677     130.531179       0.000000
    312.242374      31.740356     131.926756       0.000000
    304.677125      50.017972     128.102443       0.000000
    328.018988      64.238407     123.303412       0.000000
    328.142108      54.761752     124.945485       0.000000
    315.321121      78.008302     126.283079       0.000000
    321.053116      70.949976     124.498722       0.000000
    303.075546      83.225356     128.906448       0.000000
    327.601428      87.611155     125.485697       0.000000
    304.920850     119.880139     139.548854       0.000000
    291.095975     122.038427     138.063306       0.000000
    302.671020     140.897442     137.491377       0.000000
    293.360719     143.219262     136.913680       0.000000
    312.800727     151.689272     136.032324       0.000000
    322.582924     152.945535     135.754490       0.000000
    312.037587     173.871352     125.487885       0.000000
    319.778090     179.498710     121.882929       0.000000
    302.905189     194.819434     116.170009       0.000000
    314.315011     196.370165     116.591967       0.000000
    315.683177     208.224288     116.527627       0.000000
    314.317384     223.249798     120.266082       0.000000
    324.376670     226.533188     122.050698       0.000000
    316.326595     231.855965     122.217844       0.000000
    306.090772     259.837798     125.995054       0.000000
    307.731297     277.465837     126.639675       0.000000
    307.093531     286.231980     124.632865       0.000000
    295.319596     284.968776     125.580288       0.000000
    319.097876     286.086237     124.315459       0.000000
    323.819536     294.024891     122.081789       0.000000
    313.528391     293.763732     122.451885       0.000000
    301.555361     315.037934     119.161227       0.000000
    312.853380     320.463570     119.515064       0.000000
    313.368851     330.735522     119.907015       0.000000
    321.952773     352.756567     118.426051       0.000000
    318.544901     339.962074     118.193113       0.000000
    311.944092     345.878721     119.904479       0.000000
    303.134950     373.074020     124.738854       0.000000
    313.242830     377.619745     124.948712       0.000000
    294.420303     385.995063     131.571374       0.000000
    305.751112     405.433929     128.299858       0.000000
    305.120623     415.762530     127.930600       0.000000
    319.085591     418.737804     122.856200       0.000000
    320.822646     470.563344     127.044056       0.000000
    313.544307     463.061735     126.285301       0.000000
    310.395670     454.510097     125.995601       0.000000
    303.509166     462.745302     125.948323       0.000000
    314.357608     480.363664     129.337328       0.000000
    299.197911     490.920166     128.710839       0.000000
    310.000000     500.000000     130.382740       0.000000
    320.000000      10.000000     132.352697       0.000000
    314.139816      19.127215     132.162164       0.000000
    319.726125      26.543245     131.719167       0.000000
    313.802366      51.239689     129.152115       0.000000
    317.155877      60.247553     126.156554       0.000000
    334.755511      71.542648     123.221285       0.000000
    343.968676      70.265731     122.478003       0.000000
    327.961918      78.736368     124.010047       0.000000
    318.582246      86.389460     127.736986       0.000000
    331.334219     108.228027     132.577849       0.000000
    322.519246     103.768984     131.642682       0.000000
    313.572168     111.091567     137.951222       0.000000
    311.050742     126.542378     139.028596       0.000000
    312.577900     137.547689     138.832967       0.000000
    322.615083     130.948755     136.962752       0.000000
    330.689478     174.330978     124.607722       0.000000
    315.930831     163.998902     131.362993       0.000000
    318.935013     188.042325     119.095622       0.000000
    310.178040     183.262776     120.474927       0.000000
    324.745548     204.637837     116.200471       0.000000
    322.533144     215.097839     119.147415       0.000000
    332.830718     223.143534     123.359826       0.000000
    315.022619     241.988191     123.895428       0.000000
    306.750646     246.843023     123.871867       0.000000
    323.236600     255.916660     124.928850       0.000000
    314.202895     252.675564     125.096154       0.000000
    335.897496     262.119678     125.211157       0.000000
    316.836411     274.712662     125.855838       0.000000
    330.509201     283.533620     123.005181       0.000000
    317.709149     302.355186     120.431451       0.000000
    313.459076     311.102423     118.851516       0.000000
    334.092146     332.132913     115.833163       0.000000
    326.745227     344.029103     117.876942       0.000000
    343.514917     332.095602     115.552635       0.000000
    332.333258     351.705556     116.070520       0.000000
    314.329922     358.721077     120.370740       0.000000
    305.581983     353.567909     123.434558       0.000000
    311.608844     368.756833     121.731087       0.000000
    318.998710     394.225841     123.572180       0.000000
    321.729206     402.846519     122.168244       0.000000
    310.986227     423.446935     125.567136       0.000000
    315.993024     431.401838     123.760136       0.000000
    328.770506     446.916055     121.344225       0.000000
    324.479685     427.283529     120.743359       0.000000
    324.864328     460.312080     126.197686       0.000000
    347.095941     448.594456     122.204162       0.000000
    310.227455     472.122193     126.515754       0.000000
    323.329937     482.656051     129.592904       0.000000
    323.487003     491.737429     130.475541       0.000000
    320.000000     500.000000     131.714063       0.000000
    330.000000      10.000000     131.756598       0.000000
    336.061463      20.138619     130.691598       0.000000
    326.680887      19.611879     131.355222       0.000000
    330.389071      30.374569     130.047118       0.000000
    320.709081      37.112774     130.080561       0.000000
    347.014009      55.525627     123.449994       0.000000
    338.422038      50.151184     125.252479       0.000000
    330.967120      99.479829     129.042739       0.000000
    350.553551      95.965989     124.397202       0.000000
    322.817243     112.420029     135.369970       0.000000
    336.564041     117.279248     131.845550       0.000000
    342.777848     100.871112     126.129593       0.000000
    318.574883     121.668697     137.841439       0.000000
    331.452626     131.092401     134.995919       0.000000
    322.449951     143.010433     137.857147       0.000000
    321.629276     170.165996     127.653011       0.000000
    329.357923     163.960105     128.928036       0.000000
    328.757574     182.025641     119.366958       0.000000
    332.836301     191.660428     117.296826       0.000000
    334.082330     201.778200     115.667645       0.000000
    331.121505     211.333427     119.247925       0.000000
    324.017559     235.872010     124.687373       0.000000
    332.802789     242.048809     124.446251       0.000000
    323.696476     246.648677     124.272104       0.000000
    336.588116     250.921617     125.175240       0.000000
    326.985300     264.970276     124.835440       0.000000
    337.079154     272.346963     126.689407       0.000000
    326.030566     275.120728     125.197052       0.000000
    341.941475     284.448675     123.243667       0.000000
    336.234371     295.012848     121.517182       0.000000
    322.502214     331.289329     118.736463       0.000000
    321.887865     314.553933     118.977150       0.000000
    327.976477     321.670925     118.849156       0.000000
    335.785911     342.668679     116.495997       0.000000
    341.884673     352.516147     115.934434       0.000000
    330.108240     370.795634     118.466543       0.000000
    323.085429     363.097574     119.272046       0.000000
    320.590624     372.689001     121.489546       0.000000
    322.576225     385.608645     121.255071       0.000000
    328.079942     396.389556     119.650408       0.000000
    311.102054     396.736174     127.104806       0.000000
    326.067848     411.799245     120.279121       0.000000
    336.827244     429.447732     118.625331       0.000000
    320.076676     439.504079     122.949331       0.000000
    337.820727     447.257464     120.912087       0.000000
    332.743347     465.689330     124.656758       0.000000
    329.467668     475.084118     127.398130       0.000000
    332.589533     490.845033     130.397965       0.000000
    342.010935     490.826450     130.077593       0.000000
    330.000000     500.000000     131.317008       0.000000
    340.000000      10.000000     132.159666       0.000000
    346.324018      18.402808     130.514468       0.000000
    339.451698      28.940469     128.098362       0.000000
    341.392031      38.062599     125.024423       0.000000
    333.206738      41.881426     126.599619       0.000000
    338.984910      62.316728     122.960741       0.000000
    323.470989      46.707429     127.587507       0.000000
    339.840472      81.073226     122.784810       0.000000
    342.406153      90.906835     123.747148       0.000000
    341.939995     109.873983     128.463329       0.000000
    312.762220     101.156642     134.898035       0.000000
    341.429555     125.304986     130.221391       0.000000
    327.543991     121.834410     135.351944       0.000000
    350.405595     127.667885     128.259415       0.000000
    332.578759     141.225497     134.773149       0.000000
    340.732666     176.297762     121.600039       0.000000
    348.408782     180.503542     119.362105       0.000000
    353.700145     188.947227     118.796642       0.000000
    324.443451     195.401444     117.025481       0.000000
    340.556262     185.127404     118.127145       0.000000
    344.212549     203.325180     118.344069       0.000000
    335.441194     232.043683     125.171928       0.000000
    345.229789     230.544004     126.781257       0.000000
    346.020303     249.642081     127.539404       0.000000
    341.482560     240.241505     126.187810       0.000000
    345.130002     262.831228     125.773815       0.000000
    352.224082     256.153213     126.340600       0.000000
    348.301525     275.303072     123.957775       0.000000
    346.208804     294.861428     119.727530       0.000000
    331.381831     312.827486     119.030315       0.000000
    336.868494     320.852416     117.702916       0.000000
    348.060490     323.950129     116.809738       0.000000
    345.119441     341.103794     115.145884       0.000000
    354.085657     344.241039     113.022464       0.000000
    347.057025     360.957224     115.349361       0.000000
    336.181947     360.541714     116.168000       0.000000
    339.506241     369.778842     116.647456       0.000000
    345.039774     388.097893     116.878865       0.000000
    331.015888     383.202527     118.649381       0.000000
    339.003950     406.068572     117.185750       0.000000
    315.372362     408.666916     125.224595       0.000000
    334.207844     419.389757     118.140338       0.000000
    343.228292     416.649240     115.809876       0.000000
    330.110703     435.129607     121.013000       0.000000
    357.510372     433.819919     116.473676       0.000000
    341.546349     437.738272     118.853013       0.000000
    334.159445     456.098030     122.188305       0.000000
    339.539778     472.623504     125.273928       0.000000
    353.418122     490.549023     130.185560       0.000000
    340.000000     500.000000     130.986773       0.000000
    350.000000      10.000000     131.000562       0.000000
    354.602540      21.612475     128.484578       0.000000
    348.583141      28.170888     126.376500       0.000000
    356.090807      39.999834     125.484196       0.000000
    348.802354      45.320670     124.540387       0.000000
    355.498870      61.582839     121.668250       0.000000
    353.948647      71.167218     120.905228       0.000000
    353.227417      82.462536     121.988624       0.000000
    361.080859     103.128266     120.563701       0.000000
    358.458456     111.730125     122.010915       0.000000
    346.391297     117.724066     127.512419       0.000000
    358.028810     121.093090     124.398236       0.000000
    341.387702     138.303987     131.473901       0.000000
    339.689350     148.288377     130.501789       0.000000
    340.228218     166.323635     125.678264       0.000000
    348.941004     148.394234     128.802297       0.000000
    345.163614     158.640214     126.168787       0.000000
    348.879924     167.974827     123.691862       0.000000
    352.639562     198.844996     119.441593       0.000000
    343.802603     193.847400     117.283386       0.000000
    339.962670     213.360040     120.151973       0.000000
    358.995927     205.357349     122.122893       0.000000
    343.730493     220.990865     124.724773       0.000000
    353.084646     241.125094     126.659655       0.000000
    364.120749     241.913675     128.368409       0.000000
    359.064149     249.600692     127.332653       0.000000
    356.316858     269.005012     124.831235       0.000000
    367.032193     267.004825     122.810327       0.000000
    351.130827     284.672018     120.379481       0.000000
    329.148289     302.940265     119.701495       0.000000
    343.986579     313.514779     118.008417       0.000000
    364.993715     313.919246     115.282053       0.000000
    353.553698     316.445732     116.348759       0.000000
    351.119893     353.165875     112.691524       0.000000
    358.336962     361.697391     114.026282       0.000000
    347.956587     373.601748     117.216290       0.000000
    340.303951     380.301934     117.530178       0.000000
    351.893271     381.825084     117.017717       0.000000
    339.608572     395.252599     117.557320       0.000000
    360.365836     403.270400     114.334990       0.000000
    350.073804     396.892594     115.180032       0.000000
    349.511802     406.856142     115.389587       0.000000
    346.306817     430.326830     115.648359       0.000000
    350.645586     439.290935     120.095834       0.000000
    351.536334     456.850410     123.766201       0.000000
    344.595676     463.171647     123.524539       0.000000
    350.619301     471.424090     124.120541       0.000000
    336.468985     483.157141     127.628744       0.000000
    363.490391     491.725433     127.962968       0.000000
    350.000000     500.000000     130.169953       0.000000
    360.000000      10.000000     129.085730       0.000000
    365.037010      21.073533     125.852812       0.000000
    365.893053      35.869904     125.528660       0.000000
    358.135930      51.505017     123.522491       0.000000
    372.319035      53.363599     123.069393       0.000000
    364.903414      58.677983     122.165693       0.000000
    362.754911      67.559587     121.277827       0.000000
    370.801298      83.534996     120.223124       0.000000
    362.675920      89.670398     120.145995       0.000000
    372.243860     105.678414     119.079717       0.000000
    375.398754     115.635585     119.905787       0.000000
    357.905320     132.625589     126.064065       0.000000
    335.677021     156.827738     129.352907       0.000000
    330.802370     149.970502     133.515557       0.000000
    359.898029     147.520575     125.111313       0.000000
    363.716014     156.207052     122.639633       0.000000
    354.650325     157.687629     124.343700       0.000000
    355.791773     175.474074     121.002829       0.000000
    361.585412     195.574488     121.959032       0.000000
    370.818128     195.735494     124.416262       0.000000
    366.730761     208.767338     125.461596       0.000000
    348.715693     213.365208     122.347292       0.000000
    352.675707     224.889447     126.585033       0.000000
    374.322101     242.164993     126.699655       0.000000
    370.217814     253.291940     126.376132       0.000000
    362.298664     258.851026     125.954415       0.000000
    375.819125     272.477660     119.792736       0.000000
    360.752085     288.243432     117.689899       0.000000
    349.164165     304.031077     116.199295       0.000000
    337.722406     305.688591     119.138471       0.000000
    359.225082     305.759624     115.503395       0.000000
    364.784401     331.466005     114.856715       0.000000
    353.463189     332.961933     114.639074       0.000000
    371.172105     339.671135     114.595720       0.000000
    363.170940     344.282019     113.630835       0.000000
    364.018600     353.457754     114.792536       0.000000
    357.535017     371.087226     115.964266       0.000000
    360.959358     381.911066     116.271402       0.000000
    366.843967     396.436967     115.755738       0.000000
    358.701933     414.903074     114.119604       0.000000
    370.053612     405.925539     115.365030       0.000000
    352.401006     421.905883     114.485644       0.000000
    368.021351     435.853263     120.325187       0.000000
    361.060414     441.744594     121.238752       0.000000
    358.671311     450.821499     122.921882       0.000000
    359.417855     473.190354     125.036430       0.000000
    357.732076     482.699148     127.233150       0.000000
    348.400124     481.593279     127.346489       0.000000
    372.094438     486.569281     126.133557       0.000000
    360.000000     500.000000     129.210999       0.000000
    370.000000      10.000000     126.656261       0.000000
    375.400773      19.125830     125.052637       0.000000
    358.394808      29.961923     126.010207       0.000000
    364.540265      44.829893     124.105487       0.000000
    374.005034      63.197906     121.009293       0.000000
    361.935741      79.799496     120.498082       0.000000
    380.387988      74.610761     118.568243       0.000000
    397.180853      85.805220     116.933761       0.000000
    368.064180      97.287519     118.226168       0.000000
    350.397063     107.610673     123.188435       0.000000
    377.650209     124.569667     119.940836       0.000000
    366.233996     118.583608     121.324486       0.000000
    366.949987     129.377567     123.251401       0.000000
    389.532064     129.881258     120.795690       0.000000
    350.344371     137.817763     128.235247       0.000000
    370.975436     138.304871     123.543624       0.000000
    368.918207     148.797679     122.688190       0.000000
    365.845905     175.492453     121.415587       0.000000
    365.772333     185.125838     121.721346       0.000000
    375.730156     212.561456     127.704198       0.000000
    358.655381     215.670141     124.958690       0.000000
    364.444594     222.933392     125.307406       0.000000
    359.014583     234.266040     126.304403       0.000000
    367.774811     232.069021     125.680267       0.000000
    382.145586     249.813161     125.356147       0.000000
    376.733835     259.543724     123.819346       0.000000
    385.170486     257.396103     121.431177       0.000000
    360.206074     276.772249     122.331222       0.000000
    366.686643     295.024394     115.812045       0.000000
    356.709894     296.886143     115.853688       0.000000
    373.242072     301.217527     114.978639       0.000000
    389.938461     319.188874     114.607173       0.000000
    360.963223     322.612485     115.148860       0.000000
    384.599700     329.111632     115.282234       0.000000
    373.572029     330.792624     116.774919       0.000000
    372.935738     352.108489     114.369630       0.000000
    368.813165     363.336469     115.273863       0.000000
    367.254201     373.547420     118.178347       0.000000
    358.094988     391.354531     115.357341       0.000000
    379.247554     404.444264     117.593586       0.000000
    380.149660     423.102933     119.629788       0.000000
    371.553528     424.792535     116.594310       0.000000
    360.817082     425.094648     116.155358       0.000000
    372.908302     444.644034     122.362356       0.000000
    379.680576     451.519217     123.841603       0.000000
    358.562931     463.505358     124.012722       0.000000
    370.642836     454.127541     124.607858       0.000000
    367.977270     477.577614     125.585284       0.000000
    380.022742     490.809535     124.977549       0.000000
    370.000000     500.000000     127.155579       0.000000
    380.000000      10.000000     124.884661       0.000000
    385.054625      19.136205     121.897682       0.000000
    372.466734      29.413112     125.404504       0.000000
    383.356806      46.639112     124.175737       0.000000
    394.388738      37.038541     122.267339       0.000000
    382.255642      56.546180     122.043307       0.000000
    371.476220      72.143642     119.529912       0.000000
    385.062840      65.328552     120.166727       0.000000
    382.107826      98.599152     118.322369       0.000000
    382.957238     110.214933     117.880237       0.000000
    396.498373     111.393053     118.315153       0.000000
    389.730551     119.881636     119.087790       0.000000
    379.764848     143.247900     122.393076       0.000000
    379.508690     133.461432     121.146159       0.000000
    371.733359     160.812091     121.745643       0.000000
    393.512432     150.527385     122.554217       0.000000
    363.642848     166.699291     121.182344       0.000000
    373.091636     170.050551     121.997336       0.000000
    377.696921     188.768182     124.748116       0.000000
    384.572697     209.703088     129.385198       0.000000
    384.713473     220.585401     127.636371       0.000000
    396.638656     226.260695     126.535823       0.000000
    374.671770     221.831363     126.606540       0.000000
    387.764329     229.070505     126.276452       0.000000
    376.959983     232.869467     126.485478       0.000000
    385.016656     267.256414     117.951969       0.000000
    380.690488     280.071129     117.178608       0.000000
    369.208506     279.244840     120.898327       0.000000
    373.661767     287.866556     116.388271       0.000000
    380.616847     293.596765     114.120791       0.000000
    372.703632     320.353755     115.969600       0.000000
    393.103621     304.781490     114.633527       0.000000
    381.193730     338.227462     116.664245       0.000000
    382.527440     348.804918     115.943694       0.000000
    390.423775     355.263984     119.570634       0.000000
    379.962946     357.562300     117.756073       0.000000
    375.070470     369.090102     118.946165       0.000000
    395.150161     379.203930     127.287672       0.000000
    381.035117     378.871803     121.174535       0.000000
    369.904105     386.057478     116.861350       0.000000
    367.672504     414.980361     115.570828       0.000000
    385.758047     431.267247     124.359017       0.000000
    380.724681     440.204202     123.218858       0.000000
    376.982662     432.069129     120.716226       0.000000
    389.860384     445.766007     125.282055       0.000000
    376.954164     462.894550     123.622429       0.000000
    367.340386     468.363342     124.776898       0.000000
    380.426228     481.026605     124.371725       0.000000
    387.879675     475.299362     124.480237       0.000000
    380.000000     500.000000     125.244774       0.000000
    390.000000      10.000000     124.363420       0.000000
    394.446893      18.151078     122.517887       0.000000
    375.521797      41.790837     124.513789       0.000000
    384.699418      37.695281     123.390967       0.000000
    400.388494      44.185507     122.847239       0.000000
    392.900319      49.409773     123.184161       0.000000
    389.875262      73.025393     118.507802       0.000000
    400.211380      74.061081     119.719514       0.000000
    386.330412      81.600929     117.096284       0.000000
