     65.629078     369.829233     133.171170       0.000000
     46.742063     366.741072     132.941128       0.000000
     62.551348     378.199042     135.057660       0.000000
     55.620941     383.958865     133.689087       0.000000
     51.752659     392.890014     134.606155       0.000000
     62.279585     399.486281     135.956214       0.000000
     57.529833     407.248779     134.287688       0.000000
     64.780115     419.404500     132.236522       0.000000
     66.129019     429.006868     132.596085       0.000000
     57.766781     447.934998     131.806493       0.000000
     47.511429     438.678152     128.856222       0.000000
     58.076150     461.241650     130.177885       0.000000
     76.667855     472.663021     130.726117       0.000000
     60.964418     478.926577     129.112087       0.000000
     52.421969     486.981335     125.266186       0.000000
     60.000000     500.000000     123.811701       0.000000
     70.000000      10.000000     120.791183       0.000000
     58.613456      19.560457     118.232276       0.000000
     70.148255      20.904646     118.507242       0.000000
     78.675800      56.013060     122.012536       0.000000
     68.101711      57.277654     118.303812       0.000000
     74.539345      64.554896     119.612295       0.000000
     50.405885      78.629163     109.699246       0.000000
     64.714418      73.732116     114.948422       0.000000
     73.372524      77.954233     117.706105       0.000000
     66.189634      96.569870     112.300438       0.000000
     76.372059     110.901267     114.310530       0.000000
     76.423316     120.124659     115.866152       0.000000
     71.285837     127.677046     114.278363       0.000000
     81.643322     143.085635     117.496641       0.000000
     59.060835     133.237453     114.158645       0.000000
     67.813639     137.576362     115.010315       0.000000
     75.870217     169.856341     118.505045       0.000000
     86.429376     163.462630     120.210793       0.000000
     62.469134     185.365802     122.594920       0.000000
     68.613439     194.777315     122.406331       0.000000
     68.395914     218.566266     121.822638       0.000000
     59.899708     225.422390     126.396170       0.000000
     76.579341     220.429714     118.211770       0.000000
     71.907518     228.239315     120.481944       0.000000
     81.799925     243.210687     117.370108       0.000000
     69.185837     257.489836     121.981979       0.000000
     79.362386     252.477273     119.006267       0.000000
     66.999904     267.145384     124.558718       0.000000
     78.090189     291.185422     125.858235       0.000000
     68.618634     286.472176     127.951735       0.000000
     57.294693     307.707809     124.360167       0.000000
     67.659578     306.504366     124.348268       0.000000
     67.136518     334.767779     127.712166       0.000000
     62.071703     326.092389     123.826114       0.000000
     67.600192     343.515381     130.403113       0.000000
     72.350768     351.410650     130.168936       0.000000
     55.737215     370.529589     132.969952       0.000000
     62.822401     389.274593     135.970019       0.000000
     72.663312     392.922387     137.401510       0.000000
     71.385532     383.233428     135.422735       0.000000
     69.378259     406.347188     133.770411       0.000000
     74.853144     426.677157     133.034424       0.000000
     67.965123     437.939228     132.884676       0.000000
     70.026704     447.657769     133.830577       0.000000
     71.776565     464.660733     131.716054       0.000000
     81.154187     461.827342     131.483921       0.000000
     70.950574     481.981818     128.802478       0.000000
     64.322084     489.145222     127.156266       0.000000
     74.480954     491.923809     127.071536       0.000000
     70.000000     500.000000     123.935896       0.000000
     80.000000      10.000000     122.827264       0.000000
     87.992160      20.591261     123.109241       0.000000
     79.671409      24.097063     120.171777       0.000000
     76.676093      32.650817     118.586407       0.000000
     85.271999      48.396649     121.768248       0.000000
     85.068004      65.210783     123.422118       0.000000
     90.757043      71.744388     125.891369       0.000000
     81.836011      73.804087     122.082556       0.000000
     82.978051      93.783405     118.882106       0.000000
     76.502013      87.049159     118.374114       0.000000
     74.756112      98.344927     114.788651       0.000000
     85.072578     115.751752     119.244960       0.000000
     83.160006     125.848457     117.741038       0.000000
     91.358425     150.940083     119.226040       0.000000
     89.626776     136.844362     116.935864       0.000000
     70.928842     146.145507     116.425939       0.000000
     76.389866     160.205935     118.293764       0.000000
     77.159977     190.537261     118.286370       0.000000
     88.346780     194.746762     120.669284       0.000000
     69.018752     209.615944     121.057377       0.000000
     77.960917     210.384148     120.344441       0.000000
     92.170842     210.678344     117.956070       0.000000
     82.710426     231.718101     116.730388       0.000000
    101.017355     233.878884     112.879503       0.000000
     86.367127     263.221805     118.682608       0.000000
     77.351765     265.549976     120.989531       0.000000
     79.613241     281.078578     125.363932       0.000000
     86.592556     288.396058     123.552730       0.000000
     71.316535     297.042503     126.904618       0.000000
     81.816756     300.208202     124.749929       0.000000
     90.361297     310.594881     123.790647       0.000000
     75.750061     310.979369     123.229911       0.000000
     81.056392     321.470602     123.786611       0.000000
     56.302527     343.746277     131.130102       0.000000
     84.436972     343.205098     125.877942       0.000000
     70.025589     361.900729     132.458141       0.000000
     90.212365     378.358572     133.504976       0.000000
     81.708535     381.880743     136.315443       0.000000
     75.362871     374.128715     134.829988       0.000000
     78.026091     402.812454     134.582155       0.000000
     87.167188     401.016367     132.384041       0.000000
     78.553848     413.975536     130.731056       0.000000
     56.307286     427.763690     131.053839       0.000000
     86.466669     440.612448     129.819876       0.000000
     76.562375     454.154604     133.566532       0.000000
     89.757460     460.161380     128.076091       0.000000
     85.795906     470.148924     128.673064       0.000000
     79.899458     480.954705     128.467225       0.000000
     84.043953     490.320637     127.713348       0.000000
     80.000000     500.000000     125.120543       0.000000
     90.000000      10.000000     124.320737       0.000000
     86.452995      35.262085     121.975384       0.000000
     93.602492      44.843863     124.219319       0.000000
     75.453081      45.056788     119.113814       0.000000
     89.042163      56.757279     125.002235       0.000000
     95.121237      63.431710     126.622821       0.000000
    104.625334      64.815998     129.033276       0.000000
     93.982198      80.861380     127.066468       0.000000
     85.329582      84.188651     122.744928       0.000000
     90.808057     101.049234     122.529261       0.000000
     82.542363     104.892717     118.822013       0.000000
     92.334128     123.094625     121.494008       0.000000
     97.060917     131.739929     119.827161       0.000000
     96.638164     142.927435     119.047129       0.000000
     78.735187     134.359446     115.310806       0.000000
     91.125634     171.448165     119.858521       0.000000
     81.482517     152.716447     118.450657       0.000000
     72.824184     182.655085     120.044469       0.000000
     99.270811     189.738962     121.539244       0.000000
    107.819165     197.505864     119.983171       0.000000
     75.780162     199.473110     119.409791       0.000000
     85.482648     203.584488     119.825365       0.000000
    103.293156     214.539671     115.195819       0.000000
     86.400925     218.217226     115.822770       0.000000
     97.369322     257.583903     115.550905       0.000000
     92.795895     237.646162     113.736648       0.000000
     94.021457     269.955756     118.218688       0.000000
    121.806045     285.574812     116.593284       0.000000
    103.608943     282.856267     118.687404       0.000000
     83.678859     272.500677     121.146966       0.000000
    100.669551     309.500378     124.631685       0.000000
     89.987385     323.736994     124.852310       0.000000
     81.344375     331.177475     123.940718       0.000000
     76.211067     339.507774     127.716196       0.000000
     94.616724     350.047345     126.907283       0.000000
     83.003308     357.825060     128.924730       0.000000
     98.170843     380.906474     129.114369       0.000000
     81.597020     366.851158     132.805997       0.000000
     82.451484     393.136847     135.783588       0.000000
     95.661994     396.878097     130.032573       0.000000
     87.400364     410.061548     129.147258       0.000000
     93.737971     427.073251     127.925924       0.000000
     85.960536     422.200752     129.709173       0.000000
     78.595676     444.401583     133.163536       0.000000
     81.054308     433.506807     132.000620       0.000000
     86.569888     450.639671     130.217313       0.000000
     94.825724     470.887730     126.449073       0.000000
     89.571118     478.777861     126.417141       0.000000
     94.370354     492.096024     124.907392       0.000000
     90.000000     500.000000     125.136378       0.000000
    100.000000      10.000000     123.793727       0.000000
    101.596378      19.634770     124.497762       0.000000
     94.573872      27.801432     124.143628       0.000000
    100.472993      38.696096     126.193724       0.000000
     99.364682      53.834721     128.215432       0.000000
    105.572989      45.908910     128.546278       0.000000
    108.210967      54.579019     130.485628       0.000000
     99.671600      73.568277     127.727336       0.000000
    102.596703      88.615491     128.501513       0.000000
     94.305553      92.379221     124.956593       0.000000
    101.657550     105.307525     126.408737       0.000000
     92.070259     110.172181     122.525278       0.000000
    103.997598     125.565081     122.664028       0.000000
     99.006541     117.243172     123.777671       0.000000
     65.374079     165.595247     120.518697       0.000000
     96.267799     162.574767     120.251190       0.000000
     82.647521     180.885627     118.857775       0.000000
     92.387484     184.228190     119.299480       0.000000
    118.048947     195.691026     122.591078       0.000000
    108.442241     207.320356     117.393817       0.000000
     99.268358     204.266199     118.133891       0.000000
    109.395930     237.883795     112.981661       0.000000
    104.147569     223.386519     113.697242       0.000000
    106.185826     260.399726     115.155741       0.000000
    102.589250     268.643812     115.789924       0.000000
     94.343675     280.665701     120.532847       0.000000
     97.964288     291.165500     122.563610       0.000000
    112.459382     287.888456     118.480258       0.000000
    108.672166     296.028354     121.492883       0.000000
     91.096559     299.186618     124.447330       0.000000
    100.551641     300.497468     124.342987       0.000000
     96.810838     330.226501     125.218250       0.000000
    112.017298     342.086826     124.289835       0.000000
     91.895308     337.883070     123.626270       0.000000
    100.782770     341.959248     123.769918       0.000000
     90.056617     364.505288     130.591703       0.000000
     99.578140     368.812273     127.836562       0.000000
     91.771355     387.752070     132.297552       0.000000
    111.753680     381.453151     125.025680       0.000000
    103.201427     388.543935     127.477199       0.000000
     96.449912     405.005352     126.077342       0.000000
     94.263712     416.079500     126.849418       0.000000
    112.502316     421.004984     121.246847       0.000000
    103.380805     423.495897     123.823346       0.000000
    106.861764     455.349318     121.678779       0.000000
    101.571351     464.340117     125.291218       0.000000
     98.228034     453.993714     125.195939       0.000000
     99.011811     484.388551     125.619369       0.000000
    104.955589     491.345359     122.598542       0.000000
    100.000000     500.000000     123.318440       0.000000
    110.000000      10.000000     122.499702       0.000000
    113.240774      18.437410     122.697060       0.000000
    106.325049      29.275464     123.833488       0.000000
    117.517490      27.395056     122.877180       0.000000
    117.080777      52.419705     130.192402       0.000000
    114.378947      62.694836     131.362480       0.000000
    115.955111      72.105132     132.061202       0.000000
    108.442090      79.262878     128.924844       0.000000
    119.581078      80.375313     130.368988       0.000000
    108.006230      95.880746     129.537893       0.000000
    115.516055     125.583473     126.012067       0.000000
    110.416247     107.676001     127.773546       0.000000
    117.796030     139.385289     125.228759       0.000000
    106.279162     134.332483     121.331164       0.000000
    107.820199     143.951469     122.560899       0.000000
    126.686813     166.498114     128.242697       0.000000
    104.976413     160.362868     122.831739       0.000000
    101.955117     169.920196     122.363654       0.000000
    102.592300     179.294012     121.371911       0.000000
    127.443197     194.646007     126.629954       0.000000
    115.069438     214.324301     117.950309       0.000000
    114.191259     224.578839     116.113826       0.000000
     95.131243     223.095119     113.385927       0.000000
     90.644836     249.963430     115.677584       0.000000
    116.015926     257.395942     113.044769       0.000000
    124.149799     262.555821     112.908889       0.000000
    112.583224     276.671547     116.677932       0.000000
    122.996098     295.503886     117.745630       0.000000
    116.603575     301.722290     120.052553       0.000000
    109.818683     307.709345     122.577664       0.000000
    106.835514     316.850898     124.422132       0.000000
    105.721901     334.402955     124.782521       0.000000
    124.259435     334.658845     122.445631       0.000000
    114.673083     333.363481     124.074396       0.000000
    103.842916     351.346745     126.375965       0.000000
     98.520816     358.969688     128.370695       0.000000
    109.466294     358.996223     126.637394       0.000000
    108.426020     372.485782     125.243483       0.000000
    110.542304     392.049328     123.242788       0.000000
    103.970898     399.540913     125.439475       0.000000
    102.946276     413.163124     125.123187       0.000000
    112.125591     411.264805     121.588860       0.000000
    121.230834     428.510092     118.457589       0.000000
    112.756418     431.785212     120.687751       0.000000
     99.497827     443.983760     125.155329       0.000000
    112.007292     463.541856     122.169007       0.000000
    130.310649     481.259641     120.216095       0.000000
    105.079369     474.019349     125.809893       0.000000
    108.459938     482.909301     123.714462       0.000000
    110.000000     500.000000     122.111305       0.000000
    120.000000      10.000000     122.091574       0.000000
    125.883795      18.592511     122.390038       0.000000
    132.139008      27.531049     124.946480       0.000000
    113.426858      39.209653     126.588855       0.000000
    127.153846      50.994054     129.484823       0.000000
    137.616126      59.789897     128.504080       0.000000
    133.139457      67.580274     130.063640       0.000000
    125.378510      73.376717     131.696602       0.000000
    116.275408      90.576880     129.993776       0.000000
    116.412696      99.703487     129.356598       0.000000
    108.030073     116.950974     125.709114       0.000000
    124.757348     126.079243     127.473620       0.000000
    136.227815     123.489198     128.768602       0.000000
    100.621542     150.905789     121.735273       0.000000
    111.432700     152.207608     125.468059       0.000000
    142.309462     152.181528     132.377811       0.000000
    113.783106     177.970058     122.748625       0.000000
    113.127038     169.039734     124.264346       0.000000
    135.409365     203.799916     125.490683       0.000000
    117.655177     205.132747     119.267405       0.000000
    124.294597     217.304074     119.511851       0.000000
    124.847926     226.340921     117.517688       0.000000
    127.587214     237.942863     113.062854       0.000000
    100.387373     248.129584     112.271869       0.000000
    110.175096     249.614460     112.622818       0.000000
    112.337906     267.597515     115.386811       0.000000
    126.384146     247.561486     111.366162       0.000000
    121.241138     274.062971     115.881883       0.000000
    130.518969     289.816970     118.010763       0.000000
    131.749054     299.103285     117.903399       0.000000
    117.468652     314.902526     120.859919       0.000000
     98.609308     320.993299     125.390245       0.000000
    119.378924     325.854363     121.906209       0.000000
    128.261473     352.334640     125.572531       0.000000
    126.346872     343.440653     123.636893       0.000000
    116.370484     350.809063     124.333073       0.000000
    132.080345     384.937783     125.611197       0.000000
    119.600619     360.670015     125.805567       0.000000
    117.902204     369.913308     125.904462       0.000000
    117.624765     401.501283     121.349280       0.000000
    122.570452     410.134847     119.663210       0.000000
    121.894962     419.545644     119.118286       0.000000
    131.644483     437.605782     117.589040       0.000000
     94.304087     436.134681     127.196135       0.000000
    108.470559     445.939736     121.153333       0.000000
    114.998835     473.754025     121.290354       0.000000
    124.575083     470.697310     117.842899       0.000000
    140.893358     482.313426     120.738467       0.000000
    114.438966     491.475503     123.084685       0.000000
    120.000000     500.000000     122.449455       0.000000
    130.000000      10.000000     123.128016       0.000000
    136.692584      19.568168     125.171927       0.000000
    125.512509      33.762400     125.147514       0.000000
    148.696179      57.745584     129.278655       0.000000
    123.022244      42.267275     127.292543       0.000000
    134.038464      76.649746     130.966875       0.000000
    124.330592      63.844468     131.563217       0.000000
    126.241333      88.275842     131.230127       0.000000
    125.751840      98.943345     130.025320       0.000000
    118.028083     114.389689     127.321497       0.000000
    131.745071     115.623812     128.203285       0.000000
    142.804631     131.742359     130.185757       0.000000
    132.405797     132.442203     127.279104       0.000000
    120.923346     147.841554     127.147472       0.000000
    120.080766     159.158674     126.029394       0.000000
    134.398104     162.556600     131.478554       0.000000
    121.534730     173.680285     126.224439       0.000000
    111.726090     189.032113     121.762957       0.000000
    137.477825     194.871716     128.809933       0.000000
    144.394488     203.514290     126.653556       0.000000
    126.541272     204.173704     122.974500       0.000000
    133.654220     215.569620     123.066396       0.000000
    137.452641     232.179544     114.637036       0.000000
    135.511780     244.821856     111.437294       0.000000
    117.919764     233.298812     114.559457       0.000000
    118.039407     242.236681     113.259486       0.000000
    140.239774     261.710287     114.276305       0.000000
    129.321296     280.337396     116.103533       0.000000
    139.616672     286.771758     116.925694       0.000000
    138.413752     320.826268     120.597003       0.000000
    141.508783     300.784421     118.161168       0.000000
    110.258564     325.253195     124.398899       0.000000
    124.237209     308.407711     118.369499       0.000000
    130.021424     362.721665     126.631986       0.000000
    128.339730     372.834614     126.430009       0.000000
    137.054590     375.361408     128.965715       0.000000
    145.187675     379.279016     130.601217       0.000000
    121.777609     381.991462     124.654393       0.000000
    123.509627     392.391367     122.545064       0.000000
    126.704862     400.711286     121.038071       0.000000
    134.328373     406.625563     121.009415       0.000000
    130.466704     414.913770     118.551801       0.000000
    117.798019     439.703861     118.740753       0.000000
    104.069018     435.816284     122.423594       0.000000
    121.076509     483.127542     120.719255       0.000000
    130.131316     462.925486     117.049255       0.000000
    120.498258     461.460559     119.409736       0.000000
    133.777716     473.037332     118.077486       0.000000
    124.875842     492.098220     123.914326       0.000000
    130.000000     500.000000     123.536196       0.000000
    140.000000      10.000000     125.947648       0.000000
    142.463612      29.001665     125.635945       0.000000
    140.292892      49.866901     127.345902       0.000000
    136.932947      40.951470     126.517986       0.000000
    151.449935      66.375513     129.600252       0.000000
    160.506553      66.604501     129.381734       0.000000
    142.523189      71.228926     129.487136       0.000000
    135.594099      91.404231     130.249529       0.000000
    146.096626      95.912123     129.808454       0.000000
    126.133592     108.110988     128.740191       0.000000
    136.581146     101.096086     128.615676       0.000000
    146.485356     122.896943     129.448842       0.000000
    151.543639     135.399041     131.881269       0.000000
    128.213220     140.902277     127.399065       0.000000
    129.579884     153.695392     129.594265       0.000000
    137.626798     144.371981     130.556710       0.000000
    122.210993     187.349171     125.543094       0.000000
    149.521598     181.282892     132.386108       0.000000
    131.195809     185.461440     128.705792       0.000000
    144.361446     189.480758     132.086636       0.000000
    151.376295     198.318544     129.617879       0.000000
    134.154743     224.838856     119.552622       0.000000
    142.835139     221.561004     120.780992       0.000000
    131.020581     255.830739     112.046211       0.000000
    144.136805     253.590453     112.539827       0.000000
    129.469841     270.214496     114.202450       0.000000
    146.436942     280.124855     116.617319       0.000000
    147.526548     292.569468     118.556780       0.000000
    146.062027     314.662454     120.826270       0.000000
    162.816423     300.207077     124.926260       0.000000
    133.088570     311.780898     118.806939       0.000000
    126.574880     319.716288     119.719470       0.000000
    143.093158     332.386220     123.726734       0.000000
    137.507403     340.538406     124.420037       0.000000
    140.481418     351.362612     128.111975       0.000000
    149.271442     339.380779     127.255027       0.000000
    145.949589     370.270072     131.238216       0.000000
    141.215013     387.624849     128.282109       0.000000
    133.208512     394.945739     124.274134       0.000000
    142.149500     411.289011     121.811740       0.000000
    152.126003     426.368786     118.537527       0.000000
    148.687893     436.229326     115.701074       0.000000
    132.881991     423.628701     116.692434       0.000000
    133.082104     454.101175     114.742595       0.000000
    119.883221     452.103075     118.829549       0.000000
    125.845128     445.111851     117.326388       0.000000
    142.990590     473.144105     117.885663       0.000000
    152.372994     476.932345     119.588907       0.000000
    135.183185     491.343592     123.073975       0.000000
    140.000000     500.000000     125.189734       0.000000
    150.000000      10.000000     127.551225       0.000000
    145.598158      17.833599     126.930460       0.000000
    146.654295      38.886050     126.691821       0.000000
    155.635719      36.300779     127.913497       0.000000
    159.218961      45.455525     129.194552       0.000000
    149.887416      47.377050     128.263540       0.000000
    141.180396      83.116739     129.362819       0.000000
    152.148234      76.170448     129.252999       0.000000
    150.696538      86.764934     129.335052       0.000000
    156.923432      93.746300     128.905171       0.000000
    152.576665     113.639367     128.266938       0.000000
    139.647686     110.130631     127.790835       0.000000
    168.019912     127.316085     132.603863       0.000000
    147.002793     143.443370     132.104707       0.000000
    159.557686     144.280935     133.321665       0.000000
    144.852752     162.134376     132.810944       0.000000
    140.825574     170.327725     132.254390       0.000000
    130.537071     175.298106     129.609994       0.000000
    156.260294     188.345389     132.079111       0.000000
    160.945891     196.379186     129.267333       0.000000
    144.897103     212.021957     123.441074       0.000000
    152.903540     209.796918     127.243830       0.000000
    156.022139     227.528465     117.376350       0.000000
    161.707237     234.572484     117.798330       0.000000
    143.981943     242.650997     114.028718       0.000000
    154.434209     247.838466     117.197665       0.000000
    150.569806     264.118030     115.648711       0.000000
    162.218567     277.237653     123.150244       0.000000
    139.100504     272.310969     115.834920       0.000000
    151.701894     303.082377     119.945182       0.000000
    163.455140     310.764199     124.646863       0.000000
    133.088031     331.363383     122.426250       0.000000
    155.297448     317.591731     122.712005       0.000000
    158.412558     341.512228     129.911262       0.000000
    152.821158     330.522873     125.406003       0.000000
    149.888064     351.276596     131.565055       0.000000
    139.494316     362.692958     128.602455       0.000000
    141.722182     401.703024     125.507473       0.000000
    150.537102     386.503569     131.695068       0.000000
    142.061434     420.276603     118.099538       0.000000
    162.054482     432.480742     119.135634       0.000000
    156.297026     449.606179     114.851159       0.000000
    140.234855     432.978816     116.106744       0.000000
    140.336028     442.640848     115.085435       0.000000
    147.316744     450.723014     114.370532       0.000000
    140.954691     459.932117     114.981363       0.000000
    161.278600     471.379174     118.418758       0.000000
    164.400631     480.529247     121.111780       0.000000
    148.281156     488.618373     122.661507       0.000000
    150.000000     500.000000     125.591450       0.000000
    160.000000      10.000000     127.098618       0.000000
    157.399907      18.639816     128.186646       0.000000
    152.848527      26.846921     126.972928       0.000000
    166.155187      35.509030     128.538900       0.000000
    177.110775      52.638025     124.874209       0.000000
    158.396449      57.733238     129.123675       0.000000
    169.630374      66.896103     126.343223       0.000000
    164.775578      74.671015     127.404707       0.000000
    160.172831      84.307893     128.678128       0.000000
    157.076925     104.505960     129.770615       0.000000
    160.571511     118.846944     129.847386       0.000000
    156.338424     126.970050     131.318909       0.000000
    173.459327     135.479479     132.955181       0.000000
    164.202821     136.040835     132.109864       0.000000
    163.921519     154.740478     133.495763       0.000000
    150.970530     171.781513     133.198749       0.000000
    139.419494     180.404486     131.587560       0.000000
    160.900589     169.875186     132.691388       0.000000
    161.504008     180.473250     132.234664       0.000000
    162.903073     215.420620     121.743994       0.000000
    161.582241     205.140064     126.071562       0.000000
    192.456731     222.196349     117.136698       0.000000
    164.523101     224.271670     118.669391       0.000000
    172.293664     243.813938     119.586569       0.000000
    146.199563     229.321584     117.030260       0.000000
    163.238186     245.380420     119.207803       0.000000
    171.002399     273.044592     126.993173       0.000000
    155.762243     284.144531     120.396587       0.000000
    156.669807     294.162729     122.300643       0.000000
    171.488890     297.835210     125.938209       0.000000
    174.563293     309.946292     123.453937       0.000000
    147.523057     323.877057     122.398621       0.000000
    161.831685     331.988163     125.755482       0.000000
    163.609697     348.088508     133.240976       0.000000
    158.674438     357.152494     135.858297       0.000000
    154.072682     366.874352     136.721184       0.000000
    148.479763     360.392623     133.100819       0.000000
    153.072875     376.392058     134.657452       0.000000
    150.613010     395.629564     129.876330       0.000000
    150.597383     404.163062     125.688019       0.000000
    169.123538     411.009103     127.011119       0.000000
    150.936501     417.776217     121.735788       0.000000
    167.421925     441.599647     118.687841       0.000000
    180.444111     437.697268     119.347667       0.000000
    165.826253     450.477399     116.836654       0.000000
    173.922548     457.651291     115.924200       0.000000
    155.302175     459.195747     114.991127       0.000000
    170.512846     469.336743     118.218022       0.000000
    159.330371     490.090680     123.207593       0.000000
    160.000000     500.000000     125.877120       0.000000
    170.000000      10.000000     127.228154       0.000000
    162.518197      27.132898     127.347294       0.000000
    175.432288      31.958454     128.868197       0.000000
    188.790862      33.708753     126.506539       0.000000
    180.155414      42.246750     126.042230       0.000000
    170.045335      44.169008     127.873458       0.000000
    168.409262      57.551783     127.168051       0.000000
    172.825484      79.703623     126.710442       0.000000
    170.477356      89.640408     130.042071       0.000000
    164.890589      99.351284     128.905732       0.000000
    184.239325     120.275243     133.183110       0.000000
    147.806876     105.122089     129.208794       0.000000
    171.055724     118.679051     133.004366       0.000000
    168.462124     145.996129     134.510319       0.000000
    153.935833     162.349352     132.867994       0.000000
    154.121026     151.451761     132.970734       0.000000
    181.838159     171.647529     129.050596       0.000000
    170.117217     174.049472     131.316112       0.000000
    169.446658     186.262462     131.610416       0.000000
    172.347203     196.929219     127.607588       0.000000
    151.595086     218.520152     121.086060       0.000000
    183.153001     218.481377     118.279643       0.000000
    173.457350     228.491118     116.999686       0.000000
    166.244138     254.939178     120.129916       0.000000
    151.342657     238.110425     117.075938       0.000000
    153.437760     274.447635     119.544459       0.000000
    160.475184     268.256916     121.131300       0.000000
    175.921246     281.169440     129.285337       0.000000
    165.300511     288.227056     125.955803       0.000000
    177.087491     290.329644     127.376744       0.000000
    179.688882     301.429684     124.602003       0.000000
    166.221240     323.062360     123.698660       0.000000
    167.991071     338.805950     128.839448       0.000000
    173.226297     349.680898     134.320532       0.000000
    167.291908     359.149387     137.655472       0.000000
    172.746283     369.134835     138.358505       0.000000
    163.410702     373.886394     137.660779       0.000000
    161.067888     383.263849     136.638224       0.000000
    162.446830     392.690980     133.428408       0.000000
    160.278844     404.253831     127.841292       0.000000
    159.549365     414.309359     124.388858       0.000000
    180.292124     408.036842     127.363277       0.000000
    159.873919     423.131392     122.215242       0.000000
    158.241043     441.019179     117.824001       0.000000
    185.624438     458.500713     117.960915       0.000000
    152.407398     468.157162     115.995542       0.000000
    194.966087     457.566953     118.687372       0.000000
    178.222493     480.002786     121.296892       0.000000
    169.498410     488.164647     122.635122       0.000000
    170.000000     500.000000     125.477306       0.000000
    180.000000      10.000000     127.144872       0.000000
    168.761923      19.341779     127.022070       0.000000
    178.011149      18.872233     126.169292       0.000000
    183.713694      26.138622     127.222927       0.000000
    187.099575      48.964432     123.935981       0.000000
    178.740697      61.974226     124.015720       0.000000
    180.824335      90.860955     127.788223       0.000000
    189.151479      94.203331     127.041186       0.000000
    167.113091     110.028149     130.661962       0.000000
    178.981751     111.094549     131.763214       0.000000
    190.806722     114.011824     131.800728       0.000000
    190.344399     127.300273     134.338174       0.000000
    177.422765     126.363998     132.397877       0.000000
    179.769784     143.319533     135.926779       0.000000
    173.124078     155.656162     133.598373       0.000000
    167.364290     163.410467     133.290158       0.000000
    176.311890     180.499491     129.466734       0.000000
    180.221679     191.535144     126.476518       0.000000
    171.327583     209.348888     121.798111       0.000000
    173.357209     219.020326     119.099125       0.000000
    185.515792     209.699032     119.978049       0.000000
    194.815926     209.104041     117.717636       0.000000
    195.258219     233.694014     116.523790       0.000000
    181.739836     240.004402     119.665818       0.000000
    168.244184     264.185124     124.651534       0.000000
    156.229856     256.748690     117.783902       0.000000
    181.139299     271.743028     129.889096       0.000000
    184.380349     284.942804     129.532499       0.000000
    185.825796     294.272924     127.791880       0.000000
    190.134416     302.729948     124.535121       0.000000
    183.568633     313.863980     122.295884       0.000000
    175.424717     320.025497     122.540368       0.000000
    174.646450     329.103936     123.632941       0.000000
    178.070401     339.290142     128.117011       0.000000
    185.303272     350.258971     131.738572       0.000000
    186.529774     366.464754     132.771198       0.000000
    184.837024     376.175044     134.246190       0.000000
    173.306940     379.709406     136.678053       0.000000
    171.249085     402.594582     129.794794       0.000000
    172.359196     391.699973     133.151897       0.000000
    190.394075     392.284202     129.475014       0.000000
    188.272920     403.065727     127.193451       0.000000
    169.527041     420.720229     125.117875       0.000000
    171.076496     432.655056     120.206752       0.000000
    164.735532     461.243991     116.324897       0.000000
    187.482110     448.529732     119.321245       0.000000
    192.141428     469.356487     119.870561       0.000000
    179.977882     469.616668     118.964864       0.000000
    178.030448     491.016087     123.801767       0.000000
    180.000000     500.000000     126.291200       0.000000
    190.000000      10.000000     127.234464       0.000000
    190.500069      19.992662     127.573687       0.000000
    201.835383      36.915890     122.992416       0.000000
    196.077234      49.592895     121.385851       0.000000
    186.948029      67.234999     122.806426       0.000000
    188.871055      58.033545     122.879402       0.000000
    183.581017      78.444125     125.652958       0.000000
    189.951730      85.208104     125.013971       0.000000
    200.393157      96.053185     125.367773       0.000000
    174.501512     100.084239     129.807171       0.000000
    188.673507     103.736748     128.454974       0.000000
    199.016465     131.556101     134.400105       0.000000
    183.921884     135.211591     133.441231       0.000000
    197.392270     156.746478     130.933407       0.000000
    192.760898     175.259869     128.006371       0.000000
    202.236059     175.190683     125.531132       0.000000
    202.642788     187.446384     122.188951       0.000000
    185.171989     182.743255     128.187408       0.000000
    194.074334     184.939399     126.535146       0.000000
    195.225230     193.603971     123.362411       0.000000
    178.951792     203.769803     122.849572       0.000000
    202.811403     195.819551     118.296870       0.000000
    200.685823     218.374205     115.961691       0.000000
    184.645427     248.525505     120.973346       0.000000
    198.090062     251.982968     120.469716       0.000000
    177.113085     259.869893     126.153042       0.000000
    204.864810     269.139982     128.250631       0.000000
    199.402289     276.349137     130.544225       0.000000
    203.449156     291.332272     129.743107       0.000000
    194.875849     287.099116     129.294403       0.000000
    182.726124     325.376262     121.880597       0.000000
    192.583986     329.406813     121.629796       0.000000
    184.838116     334.938074     123.961335       0.000000
    189.252061     343.407974     126.845100       0.000000
    198.005116     346.578708     124.584152       0.000000
    181.469858     358.337207     134.272926       0.000000
    195.010233     368.122425     129.438464       0.000000
    190.586084     382.991760     131.355027       0.000000
    182.260924     386.352738     133.320053       0.000000
    181.834700     396.424542     130.199609       0.000000
    195.269269     408.260941     123.879576       0.000000
    179.669950     419.210175     124.135495       0.000000
    186.967020     413.421639     123.839409       0.000000
    180.333717     428.079904     120.877308       0.000000
    176.666731     446.485998     119.067117       0.000000
    199.753037     448.118199     117.718689       0.000000
    197.603021     478.489267     121.458025       0.000000
    188.232973     477.321244     121.549189       0.000000
    187.968403     490.880535     124.346295       0.000000
    190.000000     500.000000     126.087686       0.000000
    200.000000      10.000000     126.889991       0.000000
    201.304870      19.567556     126.064301       0.000000
    192.905857      41.332876     123.926722       0.000000
    196.050379      28.287445     125.338710       0.000000
    198.260870      58.463789     121.323622       0.000000
    178.035646      71.324687     125.703370       0.000000
    193.595561      76.980533     123.506442       0.000000
    208.941905      90.125733     122.976436       0.000000
    199.186300      86.330339     123.635566       0.000000
    206.951324     102.089336     126.676559       0.000000
    197.849155     107.360657     128.808650       0.000000
    208.436491     122.846441     132.446590       0.000000
    191.203635     142.990820     133.997630       0.000000
    187.857927     152.561759     132.137675       0.000000
    201.105455     146.869330     132.848345       0.000000
    210.043969     160.492619     128.330984       0.000000
    179.924515     162.485688     130.997803       0.000000
    217.544174     176.031366     121.757186       0.000000
    222.341641     193.086144     113.075888       0.000000
    210.956476     183.004371     121.240008       0.000000
    214.768272     201.728715     114.066563       0.000000
    189.737221     200.590793     121.644880       0.000000
    203.848674     206.414973     115.772175       0.000000
    185.111330     231.175474     117.464680       0.000000
    204.472715     242.073589     118.438381       0.000000
    192.302909     243.683193     118.046433       0.000000
    175.763177     251.883097     121.678831       0.000000
    190.280834     277.023116     129.831089       0.000000
    190.179044     266.988461     127.958976       0.000000
    196.280258     296.550671     127.275350       0.000000
    192.255436     320.006090     122.546680       0.000000
    204.798421     328.541253     121.081532       0.000000
    214.360266     328.487987     119.480825       0.000000
    199.884538     336.070007     121.907071       0.000000
    207.641158     346.534112     122.080915       0.000000
    189.795452     358.255995     130.711472       0.000000
    205.075450     381.330961     125.558829       0.000000
    198.165353     387.186003     127.183821       0.000000
    197.200956     377.463441     128.339912       0.000000
    209.300508     402.309076     123.811478       0.000000
    198.974208     397.535835     125.780004       0.000000
    197.471883     417.827126     121.117749       0.000000
    197.174349     426.868090     119.885602       0.000000
    189.368313     422.049812     121.665538       0.000000
    188.207914     433.026662     119.828699       0.000000
    202.764013     464.389144     119.525799       0.000000
    205.648400     473.449948     121.198410       0.000000
    206.333432     482.746555     121.751232       0.000000
    196.791335     487.998367     123.042606       0.000000
    200.000000     500.000000     125.741509       0.000000
    210.000000      10.000000     124.924085       0.000000
    211.230316      19.231315     123.514701       0.000000
    223.466825      37.109764     117.678137       0.000000
    207.006633      27.670812     122.604018       0.000000
    208.772279      56.069950     120.046174       0.000000
    196.074866      67.433455     122.549901       0.000000
    223.477205      66.386226     117.608992       0.000000
    204.843222      76.178495     122.805121       0.000000
    230.440937      85.404690     121.106361       0.000000
    214.500647      97.147374     123.987802       0.000000
    212.232930     109.150629     129.227226       0.000000
    203.892203     113.813397     130.941231       0.000000
    197.333167     121.518914     133.764120       0.000000
    205.259852     138.047017     132.500311       0.000000
    215.384319     144.682972     130.713516       0.000000
    188.645634     164.189727     129.309599       0.000000
    210.007076     169.397783     124.842593       0.000000
    221.010522     167.430404     123.971198       0.000000
    230.587990     190.820966     110.205260       0.000000
    211.636321     191.335151     117.574206       0.000000
    223.756748     211.236157     110.558018       0.000000
    224.219517     202.112006     111.152409       0.000000
    209.829922     220.520571     114.437836       0.000000
    205.243410     229.633674     117.099889       0.000000
    213.797768     248.660311     120.293274       0.000000
    208.955346     255.839224     123.375559       0.000000
    188.562708     256.883323     123.774937       0.000000
    213.620762     272.299926     128.841048       0.000000
    213.408882     287.532580     130.046592       0.000000
    201.257598     305.196424     126.466490       0.000000
    194.650330     310.589621     122.980287       0.000000
    202.732609     319.058878     122.797099       0.000000
    224.632079     319.072893     121.678956       0.000000
    210.029913     337.621244     120.784330       0.000000
    216.490482     350.142218     121.884104       0.000000
    198.320424     355.818294     127.107394       0.000000
    213.952765     384.395753     124.832469       0.000000
    208.110088     392.859590     125.700584       0.000000
    231.724621     394.227561     123.322637       0.000000
    217.656951     396.640079     123.628667       0.000000
    207.244604     410.795800     120.991837       0.000000
    220.311011     419.026042     119.844251       0.000000
    193.808652     440.764128     119.465799       0.000000
    207.110875     442.462417     117.543330       0.000000
    216.364811     449.043716     115.221658       0.000000
    208.576628     455.626714     116.630536       0.000000
    213.886585     463.940393     117.094637       0.000000
    216.303951     481.612128     119.884338       0.000000
    207.389562     491.271762     125.146678       0.000000
    210.000000     500.000000     125.046133       0.000000
    220.000000      10.000000     123.435501       0.000000
    225.181182      17.895509     122.582827       0.000000
    217.100692      30.660256     120.014942       0.000000
    211.698519      38.293554     119.732720       0.000000
    207.185871      46.307561     120.060235       0.000000
    206.917963      64.986314     122.538982       0.000000
    233.057028      64.196176     115.598721       0.000000
    214.883752      69.489428     121.055927       0.000000
    214.116259      80.001248     121.346291       0.000000
    220.828678      90.340198     122.296917       0.000000
    221.644310     111.009117     127.806735       0.000000
    216.328812     118.159698     131.627091       0.000000
    212.069411     132.274384     130.530788       0.000000
    222.420525     131.364088     128.280578       0.000000
    227.580707     145.392942     127.564408       0.000000
    208.768397     151.209437     130.810428       0.000000
    197.211862     167.022365     128.749219       0.000000
    218.959450     184.163535     116.707982       0.000000
    228.453228     180.823756     116.521013       0.000000
    233.961083     200.560427     109.923742       0.000000
    218.757948     219.144866     113.824233       0.000000
    212.930284     211.669704     113.682926       0.000000
    215.495087     228.143901     114.855165       0.000000
    214.539163     238.884831     117.494030       0.000000
    217.997801     256.020344     124.084960       0.000000
    230.722869     263.232796     127.280486       0.000000
    198.191478     260.291634     124.893355       0.000000
    208.241074     279.982894     129.519304       0.000000
    222.932549     277.452889     128.933342       0.000000
    209.478277     310.119296     125.448048       0.000000
    213.544389     300.033865     128.031882       0.000000
    233.829700     320.070513     120.935410       0.000000
    212.914292     318.828152     122.395194       0.000000
    223.674879     328.397583     119.364200       0.000000
