    305.150708     405.831148     129.099714       0.000000
    305.842495     415.164204     127.496103       0.000000
    317.267195     419.071700     121.505801       0.000000
    318.583771     469.067617     126.582035       0.000000
    313.981244     459.440693     126.327876       0.000000
    308.117816     452.267089     124.415126       0.000000
    302.474357     462.042481     126.197181       0.000000
    311.255710     481.587912     128.700939       0.000000
    297.958779     491.156228     128.648268       0.000000
    310.000000     500.000000     130.702485       0.000000
    320.000000      10.000000     131.015918       0.000000
    316.225204      18.882179     128.764502       0.000000
    318.629360      28.343409     129.565391       0.000000
    313.099773      49.833915     127.255176       0.000000
    316.338307      58.070419     125.169631       0.000000
    334.333200      70.956269     123.790994       0.000000
    343.081504      70.525361     121.340213       0.000000
    327.591625      77.133959     125.010385       0.000000
    319.787509      84.728946     129.895034       0.000000
    333.197841     107.491025     132.646060       0.000000
    324.859813     103.781307     133.749746       0.000000
    312.357875     115.382331     138.216101       0.000000
    312.397717     129.397086     138.240129       0.000000
    310.238989     138.187429     137.422701       0.000000
    321.507504     132.290421     135.632768       0.000000
    331.179891     171.785037     123.731867       0.000000
    316.185310     162.699175     130.578107       0.000000
    320.643938     185.964221     117.509334       0.000000
    310.235603     184.695208     116.694690       0.000000
    325.805867     204.379292     116.541648       0.000000
    322.438939     217.224570     116.776620       0.000000
    333.999785     221.328136     120.356796       0.000000
    313.953332     242.883821     123.326267       0.000000
    307.200077     249.431330     123.617222       0.000000
    324.524401     256.122604     124.199574       0.000000
    315.546147     253.188560     123.409661       0.000000
    337.492234     262.968774     124.914752       0.000000
    314.957366     274.947650     124.495400       0.000000
    330.760807     281.146263     123.577567       0.000000
    318.164271     302.320955     122.673239       0.000000
    313.117794     312.634127     121.589635       0.000000
    334.725991     333.628471     117.493792       0.000000
    325.541051     344.301932     118.356572       0.000000
    345.619853     333.619165     115.847187       0.000000
    333.539847     352.034595     116.484008       0.000000
    314.023376     356.734312     121.168755       0.000000
    304.944382     353.028217     122.974190       0.000000
    312.370053     365.654084     121.657846       0.000000
    319.606760     394.437765     121.000287       0.000000
    323.351153     403.611760     120.721766       0.000000
    308.485067     424.313218     124.932889       0.000000
    315.159053     430.620635     121.456519       0.000000
    328.192103     444.694113     122.006574       0.000000
    325.836304     423.529824     119.632039       0.000000
    323.935869     461.321658     125.325698       0.000000
    347.689885     447.613481     120.600093       0.000000
    309.338346     469.150836     127.348168       0.000000
    324.728330     481.065429     128.680734       0.000000
    320.751429     490.220764     130.475059       0.000000
    320.000000     500.000000     131.353090       0.000000
    330.000000      10.000000     131.527805       0.000000
    338.112799      19.633774     130.276170       0.000000
    328.103420      19.720916     131.740671       0.000000
    328.633958      29.409959     130.058411       0.000000
    319.801019      37.495161     127.634853       0.000000
    346.755321      58.352248     123.134481       0.000000
    335.084699      50.542901     124.289268       0.000000
    331.295275      96.160803     131.224941       0.000000
    350.009150      94.402095     125.083808       0.000000
    325.803398     112.584252     135.403254       0.000000
    336.975205     117.359274     132.185083       0.000000
    341.563114     102.162144     128.357261       0.000000
    318.188103     122.509511     137.450501       0.000000
    330.779731     130.241415     133.186601       0.000000
    319.203907     141.646519     135.004542       0.000000
    320.088408     168.807524     124.763126       0.000000
    327.657661     158.856213     127.886901       0.000000
    329.174404     182.539932     119.580059       0.000000
    335.589394     195.564586     117.672460       0.000000
    334.845705     204.633949     117.840881       0.000000
    330.615022     213.183108     118.487502       0.000000
    327.536929     237.306134     123.200224       0.000000
    333.356084     244.023635     125.547412       0.000000
    322.544625     245.893300     124.042208       0.000000
    334.715364     254.389874     125.932652       0.000000
    328.144418     264.371244     124.501177       0.000000
    338.128976     273.369814     124.405304       0.000000
    324.022804     274.500481     123.115236       0.000000
    341.404066     283.206714     123.151045       0.000000
    335.501574     291.567604     122.237761       0.000000
    324.945967     332.485520     119.149194       0.000000
    322.910542     311.998341     119.340871       0.000000
    328.747579     322.593106     118.023878       0.000000
    334.865349     342.925344     116.100672       0.000000
    345.367917     353.599726     114.521623       0.000000
    328.922649     370.850549     118.491116       0.000000
    324.146087     363.208326     119.502764       0.000000
    320.906627     374.871291     120.235877       0.000000
    322.994412     385.083728     119.890973       0.000000
    329.108680     396.023866     117.732904       0.000000
    310.498424     398.167244     126.087200       0.000000
    324.639758     413.577861     119.403118       0.000000
    337.663690     427.561022     118.039933       0.000000
    322.086545     436.699213     121.173259       0.000000
    338.001821     444.599497     119.889328       0.000000
    332.284187     465.504689     124.215876       0.000000
    330.639367     474.218352     126.089895       0.000000
    329.784845     490.878285     130.332361       0.000000
    344.845917     490.367114     130.162996       0.000000
    330.000000     500.000000     130.800541       0.000000
    340.000000      10.000000     130.001500       0.000000
    346.999885      18.572239     127.816333       0.000000
    338.326077      29.016669     127.330238       0.000000
    344.709458      35.364304     125.079961       0.000000
    335.241671      38.742951     126.829913       0.000000
    336.311560      60.837641     123.055286       0.000000
    322.904877      45.855747     125.890521       0.000000
    338.504472      81.357075     123.964005       0.000000
    340.517661      92.554038     126.771575       0.000000
    344.344667     111.465143     128.796323       0.000000
    313.409640     103.497678     136.362304       0.000000
    339.951481     125.764618     130.577513       0.000000
    327.389374     121.607654     135.707033       0.000000
    350.618005     127.491686     126.207450       0.000000
    330.855471     139.655654     132.633049       0.000000
    340.061101     174.888623     122.370543       0.000000
    347.567196     181.694752     119.616745       0.000000
    354.851728     189.728277     119.464629       0.000000
    326.493412     195.231332     116.266981       0.000000
    338.171462     183.155874     119.218270       0.000000
    343.906375     201.824649     119.982278       0.000000
    336.874509     231.179391     123.423501       0.000000
    345.852201     232.573264     124.382239       0.000000
    344.259269     253.283407     127.137218       0.000000
    341.847520     241.213699     126.696555       0.000000
    345.458992     267.537636     125.875584       0.000000
    352.571690     261.171600     127.299149       0.000000
    349.339290     276.801660     124.709457       0.000000
    344.721584     293.870940     121.908496       0.000000
    333.104630     314.464579     118.541209       0.000000
    340.145099     320.727421     117.374248       0.000000
    351.065054     319.791240     116.011661       0.000000
    344.746450     344.013780     114.967652       0.000000
    353.924536     342.585613     115.997135       0.000000
    344.466223     362.681838     115.447519       0.000000
    333.393560     362.404184     117.376724       0.000000
    337.680487     370.628133     116.137111       0.000000
    345.018821     387.546019     115.552553       0.000000
    331.918160     382.611163     117.338448       0.000000
    337.026040     404.734967     117.654155       0.000000
    314.248203     408.550459     124.553114       0.000000
    333.821265     418.448340     117.684763       0.000000
    343.379007     417.153413     116.436381       0.000000
    330.757366     434.112343     119.988217       0.000000
    357.173273     431.154409     116.924706       0.000000
    341.174894     436.278083     117.406357       0.000000
    334.379785     453.715013     122.961567       0.000000
    341.464385     471.394989     126.189101       0.000000
    355.742717     491.294507     127.841951       0.000000
    340.000000     500.000000     130.063682       0.000000
    350.000000      10.000000     127.917211       0.000000
    355.961076      20.724517     126.557903       0.000000
    349.566100      27.084933     125.698196       0.000000
    352.105728      41.020558     124.562025       0.000000
    344.706316      47.599826     124.523645       0.000000
    351.830158      65.841707     121.618362       0.000000
    351.123927      76.158372     120.308413       0.000000
    346.936595      84.348052     122.315104       0.000000
    362.592167      99.283281     122.093654       0.000000
    360.610652     111.111907     123.695665       0.000000
    351.359732     117.566222     126.677466       0.000000
    360.363796     122.046288     123.869483       0.000000
    341.145686     134.688182     130.519897       0.000000
    340.807390     146.268677     130.981010       0.000000
    337.759473     165.418663     124.890936       0.000000
    348.614649     149.067160     127.356007       0.000000
    345.158160     159.160225     125.066672       0.000000
    351.001675     167.512458     122.175874       0.000000
    352.420563     198.305163     120.989384       0.000000
    345.417560     191.183600     119.107176       0.000000
    340.766453     211.554359     120.297836       0.000000
    356.688369     206.471827     122.856113       0.000000
    343.670907     221.309515     122.191641       0.000000
    350.254721     245.454703     127.608802       0.000000
    363.053275     242.045319     126.708407       0.000000
    358.217757     251.571525     127.120848       0.000000
    357.722412     269.927116     125.710192       0.000000
    368.057994     268.994495     124.846647       0.000000
    350.216129     286.471850     123.127276       0.000000
    329.734586     304.095302     120.655947       0.000000
    343.416162     311.116678     116.492225       0.000000
    368.345371     314.818731     113.856664       0.000000
    356.497626     311.441307     116.003983       0.000000
    354.305016     352.685523     115.833381       0.000000
    356.548684     363.335804     115.383962       0.000000
    347.997416     374.014951     114.320976       0.000000
    340.301365     379.477963     115.127370       0.000000
    353.591168     382.577868     113.978335       0.000000
    336.393410     390.829998     116.017909       0.000000
    356.822060     402.214110     117.506222       0.000000
    345.791985     399.100766     116.920785       0.000000
    350.173763     409.766320     116.260910       0.000000
    346.787534     429.026899     116.536228       0.000000
    351.563379     438.078976     118.267442       0.000000
    349.320796     457.425969     123.257905       0.000000
    341.061917     461.624344     125.027922       0.000000
    349.803053     466.896541     125.130366       0.000000
    336.692082     481.347744     128.128155       0.000000
    365.080859     491.015349     126.001188       0.000000
    350.000000     500.000000     128.467015       0.000000
    360.000000      10.000000     126.524660       0.000000
    365.218032      22.808272     127.690354       0.000000
    366.019066      35.935307     124.273449       0.000000
    354.670457      52.141164     123.566349       0.000000
    375.226585      52.559819     124.340063       0.000000
    363.672363      57.430977     122.432923       0.000000
    362.145135      66.717977     120.616243       0.000000
    369.733161      80.385009     119.597555       0.000000
    361.498442      88.670785     121.078951       0.000000
    373.104241     105.225755     120.400384       0.000000
    379.003829     115.754042     120.113756       0.000000
    359.537450     134.373915     125.650594       0.000000
    337.229027     155.024124     129.170446       0.000000
    330.255528     149.548009     131.274265       0.000000
    362.827860     144.868303     122.637732       0.000000
    364.500466     157.151758     121.835901       0.000000
    354.937152     154.648504     124.104498       0.000000
    356.538470     180.272779     120.375121       0.000000
    363.534762     197.440506     122.438475       0.000000
    372.835193     200.137666     124.311819       0.000000
    367.175713     209.624290     123.563018       0.000000
    349.585395     213.154018     122.349342       0.000000
    353.185463     225.065338     124.207809       0.000000
    372.990117     242.211628     125.737758       0.000000
    367.198559     250.811603     126.119587       0.000000
    362.656593     261.898761     127.328492       0.000000
    375.393125     272.511670     120.665469       0.000000
    365.832414     287.807651     120.314868       0.000000
    349.352877     301.421613     118.829922       0.000000
    338.844222     300.980747     119.761257       0.000000
    362.276730     304.339313     116.310303       0.000000
    366.119175     332.410347     114.812463       0.000000
    355.285801     333.510312     116.710372       0.000000
    371.500829     339.866691     114.396126       0.000000
    363.291794     343.492442     115.688698       0.000000
    365.418713     352.355063     116.706497       0.000000
    359.187568     374.215785     113.925127       0.000000
    362.926570     384.253873     115.671886       0.000000
    369.226402     395.062645     118.663258       0.000000
    362.305170     415.398795     116.800868       0.000000
    368.570239     404.398183     117.614446       0.000000
    354.292937     419.915321     116.081915       0.000000
    365.788412     434.832473     118.020318       0.000000
    360.692229     442.138850     119.687789       0.000000
    357.125920     450.589465     120.956176       0.000000
    357.579675     473.442903     125.034343       0.000000
    356.966156     482.490978     126.213413       0.000000
    346.001372     480.970738     128.629861       0.000000
    373.357389     486.062103     124.277153       0.000000
    360.000000     500.000000     127.226150       0.000000
    370.000000      10.000000     126.799420       0.000000
    373.259622      18.418676     126.754723       0.000000
    358.215570      31.252169     126.454145       0.000000
    361.762310      44.816042     124.043564       0.000000
    374.294458      62.211743     121.388141       0.000000
    360.054804      77.472360     119.788690       0.000000
    379.088041      74.360842     117.839143       0.000000
    393.871051      82.984519     118.961927       0.000000
    371.091241      95.129621     121.205875       0.000000
    350.962051     104.103842     126.865820       0.000000
    374.372893     123.788756     120.968394       0.000000
    367.376464     116.693827     121.407092       0.000000
    368.162849     130.553184     123.767192       0.000000
    389.522956     129.660496     119.627512       0.000000
    352.538438     140.214016     127.607949       0.000000
    373.609731     139.007859     122.153017       0.000000
    374.960324     148.849665     122.495773       0.000000
    368.627843     174.953956     120.789903       0.000000
    366.002530     185.860934     122.296737       0.000000
    375.139036     215.742457     124.715383       0.000000
    359.715923     215.262254     123.462837       0.000000
    362.415526     224.277865     125.142112       0.000000
    354.434274     236.905227     126.383395       0.000000
    367.439213     232.764403     126.459256       0.000000
    381.965365     250.458157     123.222898       0.000000
    373.737191     259.802496     125.503556       0.000000
    384.637226     259.465657     121.516001       0.000000
    358.797516     282.772481     123.948128       0.000000
    369.417913     294.765669     115.427549       0.000000
    355.947115     293.949102     121.006436       0.000000
    371.073226     304.627249     114.048284       0.000000
    385.757523     317.040752     112.688659       0.000000
    362.897432     322.416072     115.773539       0.000000
    385.876518     328.086262     113.877639       0.000000
    376.501485     330.921936     114.470572       0.000000
    373.908292     348.579643     116.834714       0.000000
    366.017895     362.747313     116.412414       0.000000
    371.636431     371.133177     117.937998       0.000000
    356.508769     390.828585     116.387131       0.000000
    377.659034     401.879797     117.541297       0.000000
    383.021409     422.139531     120.459502       0.000000
    374.255755     423.372273     118.114837       0.000000
    364.866631     424.525797     116.782390       0.000000
    372.185932     447.743322     121.308501       0.000000
    381.119210     451.508424     122.806506       0.000000
    358.563180     463.915631     124.356917       0.000000
    366.204681     454.889653     122.326063       0.000000
    365.792085     480.002932     124.511414       0.000000
    382.284332     490.294231     122.335863       0.000000
    370.000000     500.000000     126.104665       0.000000
    380.000000      10.000000     125.020162       0.000000
    385.959916      19.547207     125.084986       0.000000
    373.833641      28.932191     126.839215       0.000000
    383.827341      46.377242     125.205875       0.000000
    390.060347      36.786714     124.023671       0.000000
    387.699120      55.702303     123.166516       0.000000
    370.381705      70.552451     119.910153       0.000000
    382.955253      65.177806     119.664100       0.000000
    382.213803     101.872347     117.549564       0.000000
    386.699235     110.746595     118.047849       0.000000
    396.184943     111.265579     117.215076       0.000000
    388.633731     120.606890     118.937773       0.000000
    384.331655     143.041220     122.888608       0.000000
    379.917677     131.159772     120.301214       0.000000
    374.713214     162.760983     120.713944       0.000000
    394.395012     147.389538     125.386925       0.000000
    362.806658     166.649316     120.871025       0.000000
    377.317309     171.672336     122.465223       0.000000
    376.300815     191.755494     123.249793       0.000000
    389.678008     207.555941     126.548007       0.000000
    386.077763     219.671928     127.018676       0.000000
    396.555789     226.109119     127.302804       0.000000
    373.112276     225.168054     125.278582       0.000000
    387.556787     230.154881     125.750599       0.000000
    378.122388     232.897824     125.291474       0.000000
    384.048352     269.375415     119.806589       0.000000
    382.031888     278.351667     117.312765       0.000000
    368.699985     278.973876     121.639115       0.000000
    374.853623     287.345913     116.178611       0.000000
    378.231849     296.745431     113.417721       0.000000
    375.983769     321.390171     114.243756       0.000000
    395.130980     308.622739     112.459701       0.000000
    383.233879     337.309623     114.895940       0.000000
    383.816128     347.834488     117.950913       0.000000
    391.337397     353.626962     121.064238       0.000000
    379.286641     357.647791     118.118381       0.000000
    379.977687     367.159378     118.640538       0.000000
    396.385703     376.522942     126.885809       0.000000
    381.171830     379.047841     120.833824       0.000000
    371.757233     381.892211     117.632452       0.000000
    371.686250     413.733908     117.178488       0.000000
    386.867537     430.133967     123.418154       0.000000
    381.366900     441.180563     122.594579       0.000000
    376.029434     433.316828     120.794021       0.000000
    388.916651     446.309215     124.852398       0.000000
    375.629237     458.797371     122.425981       0.000000
    366.800837     469.868203     124.541840       0.000000
    380.815732     480.778568     122.973479       0.000000
    390.549528     473.686773     125.125342       0.000000
    380.000000     500.000000     124.523807       0.000000
    390.000000      10.000000     123.394378       0.000000
    394.987706      18.191937     122.078122       0.000000
    373.371806      42.968585     124.254645       0.000000
    381.060189      37.811989     124.484504       0.000000
    400.790902      40.909634     123.000204       0.000000
    394.238821      48.328311     124.350339       0.000000
    391.838277      74.161997     120.036678       0.000000
    400.393655      69.303574     119.995143       0.000000
    384.500362      82.177373     117.835777       0.000000
    378.109676      89.036223     119.337759       0.000000
    392.772425     102.150540     117.049665       0.000000
    406.436506     112.357251     118.534562       0.000000
    398.445672     130.253422     121.330157       0.000000
    393.368998     137.833822     122.860651       0.000000
    382.545005     157.134804     122.858045       0.000000
    392.486239     159.269834     125.068116       0.000000
    385.848077     167.988935     124.087635       0.000000
    384.813911     177.936540     124.305802       0.000000
    381.021688     207.111981     123.850338       0.000000
    385.889128     199.329784     124.953031       0.000000
    394.995865     199.400757     126.947832       0.000000
    395.911132     214.784019     127.203394       0.000000
    408.890522     229.617850     124.459257       0.000000
    404.677372     237.749595     121.230542       0.000000
    395.860875     234.241951     123.055778       0.000000
    384.443497     241.322188     125.196224       0.000000
    395.150441     257.081240     119.597317       0.000000
    384.056544     287.278477     114.120442       0.000000
    392.527370     295.598315     111.393605       0.000000
    377.599031     312.112837     112.989836       0.000000
    382.876997     304.917212     111.796898       0.000000
    404.550025     303.628130     113.427232       0.000000
    395.710360     331.979542     114.666763       0.000000
    392.594750     340.331472     116.177273       0.000000
    398.973133     348.591111     120.995118       0.000000
    388.672119     362.438298     121.258183       0.000000
    388.900533     373.502890     122.768789       0.000000
    398.831959     386.540020     126.537272       0.000000
    388.454999     386.394767     121.419496       0.000000
    377.352527     391.078069     119.987999       0.000000
    387.350713     397.502182     121.290512       0.000000
    382.225392     411.840045     118.214802       0.000000
    421.828842     416.777809     129.279143       0.000000
    393.606682     436.589196     126.232910       0.000000
    389.089037     456.220601     124.135844       0.000000
    383.758295     466.752868     123.544613       0.000000
    376.423147     472.757986     123.750836       0.000000
    394.944922     482.402648     123.843565       0.000000
    391.304709     490.661688     123.513094       0.000000
    390.000000     500.000000     123.919061       0.000000
    400.000000      10.000000     123.392572       0.000000
    404.578041      18.788770     122.630358       0.000000
    382.826251      28.815800     125.608359       0.000000
    392.847368      27.144652     122.422416       0.000000
    411.142726      45.146125     122.706247       0.000000
    403.166067      49.921067     123.150482       0.000000
    393.863076      62.112711     120.774780       0.000000
    404.738192      82.795262     118.975361       0.000000
    402.593733     103.326181     117.378612       0.000000
    385.741957      93.580889     117.617760       0.000000
    399.675008      94.362342     117.567334       0.000000
    399.259138     120.850679     119.385751       0.000000
    402.442582     143.408369     126.333684       0.000000
    412.026129     140.390359     126.839700       0.000000
    406.075918     133.549696     124.926304       0.000000
    409.660334     150.222983     128.073183       0.000000
    393.088509     173.296073     125.916795       0.000000
    398.134296     181.942240     128.843463       0.000000
    376.036916     182.621753     121.890733       0.000000
    385.558427     187.297526     125.531279       0.000000
    394.086403     190.427974     126.940858       0.000000
    404.524447     210.197179     126.967666       0.000000
    416.513697     236.266838     124.744429       0.000000
    416.593375     223.938451     125.442781       0.000000
    404.554926     246.997201     118.186066       0.000000
    394.357218     247.409083     120.737499       0.000000
    404.182830     257.258427     117.690392       0.000000
    390.775380     276.620633     114.006524       0.000000
    396.615617     283.123216     111.667546       0.000000
    403.011472     294.701814     112.314624       0.000000
    412.099521     309.505549     114.157900       0.000000
    403.697461     314.022169     113.171753       0.000000
    395.904227     321.598524     113.380611       0.000000
    410.404982     340.006876     120.468350       0.000000
    401.844923     339.630765     117.021975       0.000000
    399.740744     357.619296     123.457415       0.000000
    404.492044     372.741931     129.631352       0.000000
    396.450374     367.198793     124.273414       0.000000
    420.125635     396.786860     129.792988       0.000000
    407.295152     392.706961     128.417239       0.000000
    397.042598     394.960208     123.537424       0.000000
    390.622584     405.980131     121.455446       0.000000
    390.737278     416.388369     121.607922       0.000000
    394.185543     424.579831     124.552713       0.000000
    397.919194     444.682100     127.011696       0.000000
    407.991851     469.151817     127.820633       0.000000
    397.848003     454.666603     126.737535       0.000000
    399.751563     472.261530     125.672378       0.000000
    402.885781     491.202049     124.661277       0.000000
    400.000000     500.000000     124.060152       0.000000
    410.000000      10.000000     124.693213       0.000000
    411.442560      26.783356     122.815506       0.000000
    401.412156      30.048796     121.497019       0.000000
    409.366443      36.047809     122.558121       0.000000
    423.071810      57.706521     123.905666       0.000000
    412.101172      55.469443     123.552155       0.000000
    404.309812      61.265647     122.950598       0.000000
    408.473029      91.508109     118.992704       0.000000
    418.346851      85.623964     119.665702       0.000000
    416.806848      95.626824     119.391342       0.000000
    412.723694     104.397287     119.221616       0.000000
    413.492177     121.751473     123.431358       0.000000
    426.182796     137.598231     127.847405       0.000000
    421.041223     144.964982     128.944122       0.000000
    401.114534     155.420959     127.170536       0.000000
    422.084204     163.697118     130.949647       0.000000
    408.976398     159.979530     129.524284       0.000000
    404.645925     172.647476     129.876521       0.000000
    404.152115     199.456128     126.949196       0.000000
    412.995720     196.226104     128.204143       0.000000
    414.931789     205.248801     126.915612       0.000000
    404.833556     221.507546     127.479057       0.000000
    416.359763     214.590225     125.988911       0.000000
    412.536976     243.025369     120.210102       0.000000
    413.709808     251.879462     118.863297       0.000000
    414.347822     262.382787     116.399915       0.000000
    406.101032     266.631037     115.048707       0.000000
    392.758066     266.652249     116.633599       0.000000
    399.406175     273.814360     113.342312       0.000000
    421.098721     306.481599     116.861748       0.000000
    418.324936     315.561288     116.948279       0.000000
    404.591821     329.415474     116.337143       0.000000
    425.021153     336.390168     122.432965       0.000000
    413.902041     355.206958     127.140855       0.000000
    407.342623     349.652741     124.182698       0.000000
    417.017332     364.600867     129.858593       0.000000
    407.907380     362.134633     127.442172       0.000000
    406.966681     382.786041     130.439900       0.000000
    426.841814     390.967653     132.462832       0.000000
    411.486956     406.619473     127.069658       0.000000
    403.282625     402.128340     124.937368       0.000000
    398.686603     410.262759     123.782820       0.000000
    402.820096     418.527867     126.329519       0.000000
    409.766263     436.959984     129.212101       0.000000
    402.479726     431.777138     127.966304       0.000000
    408.680407     446.466938     128.909685       0.000000
    417.473932     474.238303     128.413548       0.000000
    406.750136     479.065644     126.738597       0.000000
    414.327876     489.431388     127.086025       0.000000
    410.000000     500.000000     124.999906       0.000000
    420.000000      10.000000     125.651185       0.000000
    414.549793      17.961912     124.936151       0.000000
    422.100240      31.092291     123.157193       0.000000
    420.084520      48.353125     123.653266       0.000000
    428.597065      44.611904     123.269411       0.000000
    432.973305      54.178484     124.970931       0.000000
    415.969766      67.111617     121.289611       0.000000
    409.884283      74.806684     119.260008       0.000000
    427.815663      82.524348     119.752288       0.000000
    428.504982      92.876278     120.956584       0.000000
    423.252235     105.647871     121.674863       0.000000
    416.719472     112.247223     121.310713       0.000000
    416.349052     130.607551     126.128204       0.000000
    429.993712     127.280168     125.338792       0.000000
    436.552313     146.914256     130.075409       0.000000
    417.724414     154.104393     129.718875       0.000000
    400.050683     164.590339     128.089233       0.000000
    413.678011     167.771545     130.828285       0.000000
    413.533348     178.816772     129.177092       0.000000
    408.285384     187.470783     128.758707       0.000000
    426.249830     211.086735     125.219784       0.000000
    425.225069     220.012198     123.735669       0.000000
    429.367367     231.837589     125.622733       0.000000
    442.120922     247.320586     129.987436       0.000000
    424.608402     240.798300     125.354763       0.000000
    422.749653     249.627992     124.585079       0.000000
    422.821953     271.373186     116.760466       0.000000
    406.175873     280.276386     111.129140       0.000000
    413.060468     298.819222     114.208600       0.000000
    410.274711     321.746896     117.030208       0.000000
    427.699180     312.825462     120.181962       0.000000
    415.606550     332.298143     120.209630       0.000000
    420.428618     323.513521     120.765334       0.000000
    417.244068     346.141457     124.479455       0.000000
    428.107972     350.550557     127.404442       0.000000
    426.429463     362.349073     131.818486       0.000000
    412.932005     375.877618     131.402582       0.000000
    416.831484     387.878070     131.440057       0.000000
    422.193686     373.454528     132.118544       0.000000
    420.323166     407.833891     129.646568       0.000000
    411.660146     417.570179     127.935465       0.000000
    432.724922     421.672983     127.979029       0.000000
    423.083469     427.399740     129.085076       0.000000
    418.641453     440.479678     130.039731       0.000000
    407.210077     458.937783     128.614583       0.000000
    395.280014     463.470033     125.678560       0.000000
    428.012408     469.058593     129.715736       0.000000
    422.701145     483.002503     127.689605       0.000000
    425.310339     491.681668     127.777032       0.000000
    420.000000     500.000000     126.878119       0.000000
    430.000000      10.000000     127.651272       0.000000
    424.406146      17.802523     124.566632       0.000000
    431.274259      25.396687     124.884741       0.000000
    418.480905      39.411992     122.832808       0.000000
    434.867061      64.077328     123.059869       0.000000
    426.535606      67.379017     122.179925       0.000000
    419.763155      76.690120     119.048621       0.000000
    434.170597      75.596405     120.578662       0.000000
    439.299115      99.551129     121.388833       0.000000
    452.357510      87.508091     118.418884       0.000000
    434.057055     107.005190     122.688335       0.000000
    430.090724     114.848770     125.015161       0.000000
    422.360053     120.262358     123.929984       0.000000
    439.017210     124.813410     126.560563       0.000000
    435.983059     135.241582     127.421521       0.000000
    432.287055     161.084621     132.250488       0.000000
    424.656469     172.402704     130.819504       0.000000
    438.520075     172.144937     131.263644       0.000000
    423.056905     182.845927     128.934246       0.000000
    422.535648     192.303969     129.575005       0.000000
    423.688977     202.490822     127.907764       0.000000
    434.121590     203.488830     125.821735       0.000000
    438.231153     227.761426     126.764090       0.000000
    433.488856     241.942511     126.603464       0.000000
    435.702703     259.005445     123.761793       0.000000
    431.678786     250.761001     125.107571       0.000000
    426.744098     281.810561     117.549839       0.000000
    413.755386     272.585120     113.417325       0.000000
    410.692215     288.785069     112.227457       0.000000
    421.780383     292.207637     116.182820       0.000000
    431.104548     293.515647     118.845129       0.000000
    437.375797     321.962614     124.743818       0.000000
    437.509732     332.112445     124.131307       0.000000
    429.598799     326.533998     122.394555       0.000000
    431.885722     342.044367     124.418022       0.000000
    444.962674     345.431152     126.469784       0.000000
    430.904407     370.186578     132.638826       0.000000
    439.682228     386.085039     132.578506       0.000000
    428.650834     381.253702     132.392980       0.000000
    428.981483     401.043918     130.500686       0.000000
    443.516102     423.909013     125.772423       0.000000
    432.750565     430.941057     129.032888       0.000000
    413.646209     428.803870     128.637723       0.000000
    428.315237     438.693974     130.410752       0.000000
    416.873799     452.567647     129.563794       0.000000
    416.195723     462.621685     129.399810       0.000000
    424.627508     458.693924     129.327132       0.000000
    438.167843     468.876166     128.642760       0.000000
    431.375503     479.376675     128.074082       0.000000
    430.000000     500.000000     128.027752       0.000000
    440.000000      10.000000     128.604704       0.000000
    437.760965      18.713929     127.547351       0.000000
    446.979073      21.708344     128.003646       0.000000
    430.833701      34.986358     123.564280       0.000000
    447.194679      48.595885     126.120176       0.000000
    452.080662      60.751880     123.371824       0.000000
    442.305621      71.700477     121.133163       0.000000
    450.105193      78.108150     119.742687       0.000000
    460.916325      82.505351     117.624631       0.000000
    442.208935      87.104042     120.322280       0.000000
    454.335023     110.045766     121.704306       0.000000
    446.218420     106.085863     121.632442       0.000000
    441.552381     114.706637     123.444681       0.000000
    449.260068     155.228666     131.735704       0.000000
    445.876057     146.709707     132.664338       0.000000
    447.526830     175.583450     130.141736       0.000000
    428.791208     152.221419     131.350283       0.000000
    441.943633     185.526084     128.286517       0.000000
    432.790006     184.480176     128.625830       0.000000
    442.110539     207.257694     123.735929       0.000000
    437.361480     217.847035     125.262351       0.000000
    446.853139     215.787704     123.632563       0.000000
    447.768286     226.154304     126.147823       0.000000
    443.582368     258.189656     128.831313       0.000000
    429.923692     265.509450     121.020282       0.000000
    423.028678     259.069226     121.189009       0.000000
    435.276939     283.249202     121.102818       0.000000
    440.042447     292.103244     124.142136       0.000000
    417.163608     280.986686     113.781347       0.000000
    438.390794     301.802687     124.138961       0.000000
    429.447242     303.083176     118.431294       0.000000
    438.112284     311.384071     124.948730       0.000000
    451.546270     335.678483     126.682824       0.000000
    453.576772     348.130965     124.919017       0.000000
    443.979816     357.607800     127.378862       0.000000
    464.121271     360.281136     125.068288       0.000000
    437.364208     351.122625     126.996358       0.000000
    447.332711     396.326250     129.109902       0.000000
    436.278287     395.117386     131.954367       0.000000
    462.673175     386.608050     126.510585       0.000000
    433.331668     412.766713     129.648274       0.000000
    443.362986     413.846381     126.561338       0.000000
    451.600865     434.430885     124.064924       0.000000
    426.346477     449.202556     129.324522       0.000000
    433.094285     455.201688     128.820493       0.000000
    447.041042     452.444385     123.953485       0.000000
    444.307636     462.057464     126.783019       0.000000
    445.345735     475.201859     125.949342       0.000000
    434.533139     490.815037     127.937318       0.000000
    440.000000     500.000000     128.395623       0.000000
    450.000000      10.000000     129.157236       0.000000
    455.747106      18.459099     126.649672       0.000000
    451.371130      31.741794     126.044066       0.000000
    440.590199      30.497332     124.564980       0.000000
    437.199047      41.913541     124.634928       0.000000
    456.638584      50.174864     123.721130       0.000000
    455.648617      69.108283     120.672818       0.000000
    443.318667      57.281203     125.029077       0.000000
    461.370444      93.251319     118.587555       0.000000
    450.410749      96.681169     118.116422       0.000000
    464.104847     114.692223     123.814249       0.000000
    450.921440     117.755845     124.857466       0.000000
    448.262504     127.099158     127.406821       0.000000
    446.398032     137.364336     129.022021       0.000000
    458.247121     155.659296     130.213788       0.000000
    440.127021     156.355558     132.527462       0.000000
    445.803404     166.246583     131.517164       0.000000
    451.588629     186.199305     127.312202       0.000000
    431.514107     193.461321     128.653466       0.000000
    450.401469     195.382192     125.575549       0.000000
    455.876569     221.734930     125.467902       0.000000
    460.675164     213.711013     124.540892       0.000000
    453.361926     233.700518     127.517553       0.000000
    450.062878     242.165170     129.779462       0.000000
    441.645895     237.136312     127.789358       0.000000
    445.457421     275.243058     128.050426       0.000000
    433.833390     273.870427     121.278184       0.000000
    453.719930     291.826722     130.350419       0.000000
    461.548566     286.470036     131.931037       0.000000
    455.245703     301.990814     129.442129       0.000000
    446.621892     299.138243     127.177099       0.000000
    447.477157     309.635625     126.731856       0.000000
    445.704858     327.586077     126.395811       0.000000
    456.066983     327.593439     127.704796       0.000000
    462.431580     340.799345     126.063155       0.000000
    473.556403     363.237749     123.332842       0.000000
    467.039314     370.893725     124.997232       0.000000
    436.698962     362.035208     130.579068       0.000000
    436.665482     377.217415     133.284434       0.000000
    447.378927     381.344990     130.903005       0.000000
    439.237797     405.400361     129.626418       0.000000
    452.979517     402.727734     124.904296       0.000000
    445.376044     443.039018     124.443023       0.000000
    440.749813     433.933586     126.171727       0.000000
    436.693813     444.563680     127.757066       0.000000
    457.251918     456.542650     122.534842       0.000000
    452.820654     465.032477     122.973104       0.000000
    455.152762     473.836676     122.084182       0.000000
    440.973845     483.533659     126.546407       0.000000
    450.000000     500.000000     127.376250       0.000000
    460.000000      10.000000     125.956375       0.000000
    466.103004      18.407360     124.290067       0.000000
    464.878091      34.873775     124.452243       0.000000
    445.860132      39.387710     125.173002       0.000000
    456.773761      39.282250     124.601705       0.000000
    474.257401      48.534741     121.225905       0.000000
    464.625315      53.854552     121.576526       0.000000
    463.827627      72.567248     118.373550       0.000000
    468.787197      88.330818     117.207747       0.000000
    460.772715     102.142212     120.147208       0.000000
    475.944353     118.134472     124.873917       0.000000
    456.762830     133.189910     130.706085       0.000000
    469.385270     125.416666     127.822409       0.000000
    456.292580     145.699335     130.535253       0.000000
    467.684211     156.906839     129.787122       0.000000
    468.234418     177.824579     129.084778       0.000000
    458.690156     177.006232     129.106978       0.000000
    461.369138     185.556205     127.188271       0.000000
    440.596299     195.209967     126.642226       0.000000
    452.842888     208.230700     124.430206       0.000000
    461.560645     203.677761     124.236466       0.000000
    462.965111     228.770833     127.719924       0.000000
    453.352033     250.593223     131.874798       0.000000
    440.026973     268.155920     124.688167       0.000000
    449.761086     267.202319     131.030436       0.000000
    462.795337     260.481039     133.543213       0.000000
    447.122473     285.200641     129.052174       0.000000
    460.729486     271.030502     133.997740       0.000000
    454.587042     280.578720     131.984772       0.000000
    470.977089     294.148494     130.037534       0.000000
    462.177421     296.392653     130.892272       0.000000
    448.350861     318.654236     126.969746       0.000000
    461.316593     311.447599     129.751713       0.000000
    461.928302     320.633243     129.029759       0.000000
    467.160540     332.188523     127.745369       0.000000
    454.317897     357.562230     125.807461       0.000000
    463.241475     350.976272     123.960280       0.000000
    443.549976     371.568180     129.064900       0.000000
    456.504312     378.985147     127.494004       0.000000
    470.427795     390.900176     123.128570       0.000000
    453.829278     389.844888     128.628039       0.000000
    460.022483     395.571232     124.610941       0.000000
    453.955967     423.860681     124.376513       0.000000
    454.925533     447.725099     121.378368       0.000000
    465.013383     453.057227     119.044027       0.000000
    468.574001     461.523498     120.309014       0.000000
    462.839025     468.813067     121.396113       0.000000
    451.240949     482.124022     123.660068       0.000000
    448.547540     490.706009     126.292056       0.000000
    460.000000     500.000000     124.688272       0.000000
    470.000000      10.000000     123.360990       0.000000
    475.254448      18.613085     121.744239       0.000000
    461.115068      26.006407     125.515912       0.000000
    464.565667      44.421354     123.660651       0.000000
    473.455439      39.107161     122.633277       0.000000
    472.840745      64.529606     118.687612       0.000000
    477.155211      72.951729     116.777249       0.000000
    463.176032      62.601349     119.914447       0.000000
    470.944281      79.579904     116.200780       0.000000
    470.407384      97.718001     118.756493       0.000000
    468.585936     106.806753     121.562944       0.000000
    458.065136     124.613397     127.299002       0.000000
    466.487403     134.971732     130.576444       0.000000
    474.853174     163.277026     130.023753       0.000000
    456.057417     166.214857     130.533335       0.000000
    466.883101     168.504465     128.751380       0.000000
    471.037112     186.617233     127.405767       0.000000
    468.493900     195.667934     126.324875       0.000000
    459.330135     194.138807     125.011848       0.000000
    470.774687     206.040595     126.018603       0.000000
    478.715180     212.167554     129.574126       0.000000
    469.840732     217.785854     127.674110       0.000000
    463.186835     238.946421     129.846729       0.000000
    470.089529     244.843343     129.021272       0.000000
    453.725452     259.493326     133.487755       0.000000
    463.021971     249.864509     131.637404       0.000000
    476.093917     275.586095     132.008124       0.000000
    472.844160     284.194794     130.883942       0.000000
    466.314848     278.469147     134.216733       0.000000
    469.013057     305.069463     130.633363       0.000000
    480.060143     304.350533     131.058290       0.000000
    470.398099     316.119956     129.786942       0.000000
    473.563657     325.448350     129.618355       0.000000
    471.730133     340.161431     127.156413       0.000000
    472.717482     351.699198     123.911793       0.000000
    485.774997     372.368336     122.438336       0.000000
    453.388036     368.879124     127.003267       0.000000
    476.399719     371.896731     124.409842       0.000000
    470.391739     381.786750     124.273847       0.000000
    465.582476     401.984949     121.060247       0.000000
