    286.687280     224.482795     116.122233       0.000000
    277.319075     218.192576     114.339259       0.000000
    277.832434     228.742170     118.695590       0.000000
    272.635281     238.103579     120.951443       0.000000
    279.906404     243.660865     123.902454       0.000000
    289.735168     267.774987     126.384333       0.000000
    261.121385     273.131311     129.283800       0.000000
    274.429066     280.257827     126.741322       0.000000
    271.710217     290.463298     124.500210       0.000000
    283.873979     290.372529     123.907795       0.000000
    269.663237     305.400199     120.742362       0.000000
    269.981080     328.020747     120.171952       0.000000
    279.990001     329.062327     121.094805       0.000000
    265.648865     339.590415     120.622162       0.000000
    279.093058     346.580294     122.239613       0.000000
    283.512984     366.712605     130.124513       0.000000
    281.094384     377.384537     133.507356       0.000000
    288.251402     383.905013     135.021547       0.000000
    286.479097     403.998479     135.637877       0.000000
    269.177450     402.118027     133.858021       0.000000
    275.490771     409.721219     134.857787       0.000000
    288.178162     425.916057     130.766560       0.000000
    280.508779     430.951446     130.252342       0.000000
    297.108382     436.548670     127.792440       0.000000
    277.536779     439.527805     128.610008       0.000000
    281.156281     451.178614     125.958120       0.000000
    276.736824     468.405637     124.833282       0.000000
    286.869618     470.765068     125.952354       0.000000
    281.777627     488.285493     125.052083       0.000000
    280.000000     500.000000     124.901761       0.000000
    290.000000      10.000000     128.102916       0.000000
    296.822332      19.621810     128.714272       0.000000
    289.761348      29.303370     126.627120       0.000000
    282.046807      42.529460     123.792804       0.000000
    291.340944      38.656347     126.243060       0.000000
    291.568941      51.112606     124.411770       0.000000
    296.001585      60.437999     125.694592       0.000000
    294.836474      80.287739     129.668773       0.000000
    283.546577      88.048660     129.827367       0.000000
    300.484800      90.750677     134.152837       0.000000
    295.093357     101.998655     136.552403       0.000000
    294.391478     114.803728     139.085637       0.000000
    275.025961     107.491803     134.308080       0.000000
    284.216458     117.356758     137.388099       0.000000
    300.746997     148.937338     133.729109       0.000000
    298.990520     158.599255     131.723833       0.000000
    279.271602     155.860063     126.885170       0.000000
    296.172846     186.710416     119.213263       0.000000
    282.269891     187.736305     114.245235       0.000000
    288.402759     203.499950     114.846252       0.000000
    296.644381     210.813036     115.832527       0.000000
    294.294645     229.068592     118.675751       0.000000
    306.032501     233.645289     122.478959       0.000000
    283.988289     235.246917     122.619750       0.000000
    287.792269     249.965744     125.811309       0.000000
    293.176338     258.747558     126.032842       0.000000
    279.545447     266.879587     126.915106       0.000000
    284.021347     277.994074     126.858281       0.000000
    293.670818     291.413838     123.775517       0.000000
    285.641844     318.545146     119.558977       0.000000
    294.798025     318.416091     119.147272       0.000000
    276.374050     320.750573     119.405984       0.000000
    290.012881     327.184715     121.172487       0.000000
    275.779129     337.623918     121.539381       0.000000
    284.890206     338.052963     120.735711       0.000000
    288.693377     346.507748     123.247540       0.000000
    285.348727     358.608086     126.348279       0.000000
    293.873399     367.836281     129.236565       0.000000
    292.794230     396.672997     133.086831       0.000000
    302.215169     396.855110     130.957692       0.000000
    285.337535     415.736763     132.387183       0.000000
    299.225110     426.255223     128.420473       0.000000
    288.239736     435.911579     130.180125       0.000000
    289.694930     448.392245     127.129620       0.000000
    299.662683     447.070256     125.713294       0.000000
    296.483958     456.469562     126.430829       0.000000
    287.491089     460.271794     124.750116       0.000000
    292.823407     481.880146     128.405000       0.000000
    290.792132     490.654327     128.679748       0.000000
    290.000000     500.000000     128.506995       0.000000
    300.000000      10.000000     130.377374       0.000000
    300.309278      32.244337     127.880759       0.000000
    300.280234      42.572605     127.016195       0.000000
    309.609671      44.149576     128.338185       0.000000
    305.200555      62.356872     124.924074       0.000000
    311.483386      69.390051     125.830321       0.000000
    290.662960      70.287086     126.453361       0.000000
    301.476650      70.991073     126.768486       0.000000
    305.050319      98.922165     135.778332       0.000000
    320.588236      95.018320     130.574375       0.000000
    309.959014      91.402619     133.628112       0.000000
    303.181966     107.759334     138.120467       0.000000
    288.171980     108.532244     136.888008       0.000000
    300.971301     131.860326     138.919775       0.000000
    308.360992     156.554315     132.734187       0.000000
    305.976677     165.485708     129.297907       0.000000
    296.965299     168.570280     126.745955       0.000000
    300.469964     177.370000     123.466361       0.000000
    290.973928     193.214927     115.467059       0.000000
    300.576910     201.868236     116.113508       0.000000
    305.183165     214.469310     117.906151       0.000000
    295.651606     220.335299     116.632314       0.000000
    303.726254     224.059213     118.921435       0.000000
    297.834750     239.767139     124.100813       0.000000
    301.074468     252.781844     125.765347       0.000000
    314.928755     268.022681     125.056143       0.000000
    301.377769     264.862352     126.234393       0.000000
    297.100461     273.796635     125.072175       0.000000
    302.932156     293.928934     124.462441       0.000000
    296.899540     306.416650     122.903284       0.000000
    308.067627     302.563032     122.612221       0.000000
    303.085124     324.182046     118.746894       0.000000
    307.699238     338.635789     119.418539       0.000000
    295.563645     334.310852     120.539155       0.000000
    298.545672     343.092243     121.537645       0.000000
    295.918918     358.800924     125.641126       0.000000
    304.043887     364.716091     125.148424       0.000000
    294.137027     376.796127     131.719433       0.000000
    305.722870     383.819411     126.967244       0.000000
    310.496544     391.320500     124.820884       0.000000
    293.608832     408.846291     133.024194       0.000000
    296.315960     417.866775     132.255198       0.000000
    306.586060     433.342638     126.607298       0.000000
    308.314039     442.839475     125.042730       0.000000
    317.962743     452.046975     124.122534       0.000000
    294.711158     465.545216     126.017117       0.000000
    299.683431     474.223772     128.106562       0.000000
    310.025056     490.104884     131.290147       0.000000
    304.960856     481.336593     129.737323       0.000000
    300.000000     500.000000     129.975998       0.000000
    310.000000      10.000000     132.171533       0.000000
    306.144993      21.833811     129.495497       0.000000
    310.298486      34.459018     129.221766       0.000000
    305.660518      53.230395     125.239072       0.000000
    329.670192      64.376765     126.999312       0.000000
    325.164301      55.663275     127.757109       0.000000
    315.487683      77.364107     127.236501       0.000000
    321.218866      69.554973     125.823939       0.000000
    306.922628      78.972139     129.749304       0.000000
    328.292344      85.758013     125.042616       0.000000
    300.435899     121.447679     140.288200       0.000000
    291.175857     123.405379     139.054409       0.000000
    303.507819     140.652644     136.637420       0.000000
    292.891048     142.281504     135.169388       0.000000
    312.013881     144.873675     136.416265       0.000000
    320.721520     154.367713     134.267013       0.000000
    309.047731     172.875462     124.637409       0.000000
    324.734836     176.350238     120.913557       0.000000
    304.791324     194.307375     118.791669       0.000000
    313.577078     195.040207     116.952506       0.000000
    313.684360     207.804647     115.318660       0.000000
    313.981199     218.948392     119.280009       0.000000
    322.112364     224.115888     122.884916       0.000000
    314.290015     228.628460     122.826784       0.000000
    309.643727     260.362456     126.371797       0.000000
    306.992885     275.038731     125.278679       0.000000
    307.359950     284.143220     125.579630       0.000000
    296.649012     282.919288     125.370972       0.000000
    319.650462     285.546683     125.935793       0.000000
    323.772257     294.305720     123.054210       0.000000
    314.197615     294.511960     123.370020       0.000000
    302.403184     313.416888     120.040279       0.000000
    313.360765     322.347325     118.091933       0.000000
    313.648491     331.792974     118.516517       0.000000
    318.940704     354.992376     115.880963       0.000000
    317.563858     340.040590     118.194857       0.000000
    312.543868     347.567305     119.099942       0.000000
    305.119413     374.053131     126.162976       0.000000
    313.317101     382.114909     122.126740       0.000000
    297.186150     387.478588     131.995519       0.000000
    302.006034     406.557840     130.428448       0.000000
    305.021117     417.850465     128.319141       0.000000
    322.656503     418.459892     122.534097       0.000000
    321.390591     469.285328     128.324566       0.000000
    314.116834     463.325634     126.493231       0.000000
    307.565984     453.448862     124.787346       0.000000
    304.960444     461.922885     126.590226       0.000000
    314.448169     480.082235     130.830343       0.000000
    300.731898     489.663189     128.596702       0.000000
    310.000000     500.000000     131.929142       0.000000
    320.000000      10.000000     133.260709       0.000000
    314.569978      17.936602     132.372196       0.000000
    319.242939      26.266705     132.554994       0.000000
    314.759306      52.048185     127.521787       0.000000
    316.374263      61.032075     126.802272       0.000000
    335.562261      72.241804     124.655677       0.000000
    343.769877      67.541640     122.922938       0.000000
    327.377010      76.458451     125.498182       0.000000
    317.556552      86.457969     128.762656       0.000000
    333.434547     106.654907     128.995228       0.000000
    324.381242     103.713215     132.050174       0.000000
    313.711553     114.386002     139.974684       0.000000
    308.779413     125.543036     139.454863       0.000000
    311.731972     134.928359     137.708813       0.000000
    321.833629     133.223936     138.738443       0.000000
    329.902174     169.494422     124.620987       0.000000
    314.595493     162.685629     129.846419       0.000000
    317.439941     182.796045     119.846597       0.000000
    307.743233     185.004183     121.591854       0.000000
    321.545235     203.453418     116.497828       0.000000
    321.204110     213.387550     117.658319       0.000000
    331.689930     222.371976     123.104380       0.000000
    317.874771     237.270160     126.700536       0.000000
    307.110164     242.362235     125.310486       0.000000
    322.447647     256.645839     127.289321       0.000000
    314.255992     250.395312     126.278857       0.000000
    336.015896     264.267420     125.000192       0.000000
    317.530565     276.576938     126.397689       0.000000
    329.077239     286.021442     123.131063       0.000000
    317.042858     303.453716     122.664450       0.000000
    311.803308     313.648598     121.042353       0.000000
    332.904516     333.772705     113.700671       0.000000
    326.077843     341.420164     114.505905       0.000000
    342.057663     333.810871     113.773007       0.000000
    330.165995     349.705526     113.413852       0.000000
    312.832050     361.562325     120.627417       0.000000
    300.735652     351.888022     122.357617       0.000000
    313.157517     372.225057     121.582603       0.000000
    318.867773     393.378383     119.829456       0.000000
    320.422542     403.066014     122.406168       0.000000
    312.600867     422.840730     124.906152       0.000000
    317.092159     431.521005     122.902461       0.000000
    325.804768     447.652716     121.926437       0.000000
    325.980043     429.246558     121.629271       0.000000
    323.563509     460.688880     125.720719       0.000000
    351.245494     447.836191     120.519870       0.000000
    311.400679     471.673579     129.152051       0.000000
    323.739731     479.721086     130.491031       0.000000
    319.077048     487.977249     130.850588       0.000000
    320.000000     500.000000     132.353805       0.000000
    330.000000      10.000000     132.816844       0.000000
    336.475531      18.256301     132.422198       0.000000
    325.944429      18.126907     134.237142       0.000000
    327.912397      29.043100     133.272520       0.000000
    321.704814      36.396892     130.327789       0.000000
    343.989117      52.367527     125.814565       0.000000
    333.799208      49.796077     127.820171       0.000000
    330.245514      94.608012     126.399967       0.000000
    352.882941      95.335516     121.906133       0.000000
    324.052107     112.428390     134.691254       0.000000
    334.400403     117.134451     131.485982       0.000000
    341.552118     101.045311     125.630758       0.000000
    318.720985     123.025056     138.252708       0.000000
    336.288728     130.937732     133.907114       0.000000
    322.517979     142.519563     136.349556       0.000000
    317.867708     169.896264     124.677581       0.000000
    328.311877     160.449021     129.536052       0.000000
    332.825549     180.700350     117.604081       0.000000
    332.339454     193.156538     117.380218       0.000000
    331.034111     202.658376     117.931584       0.000000
    330.405633     213.235668     119.664718       0.000000
    326.881323     232.428779     127.897160       0.000000
    331.440025     242.561737     127.679836       0.000000
    322.359974     245.154824     127.414157       0.000000
    332.437932     253.165244     128.006027       0.000000
    327.048778     266.141833     125.508788       0.000000
    337.146537     274.965890     123.644236       0.000000
    327.380734     275.313381     125.576695       0.000000
    339.123109     284.218506     123.132398       0.000000
    334.104838     294.940166     121.086138       0.000000
    323.270516     330.966798     116.878689       0.000000
    321.025365     313.286256     120.760671       0.000000
    324.543277     321.698472     117.904597       0.000000
    335.423973     342.317196     112.362570       0.000000
    343.748689     353.499258     114.533874       0.000000
    331.978523     373.385333     116.808278       0.000000
    323.685972     364.276604     116.072951       0.000000
    321.208995     373.508229     117.752979       0.000000
    322.248765     384.698133     117.854406       0.000000
    328.786442     398.154895     117.578621       0.000000
    310.553980     400.360161     126.613696       0.000000
    325.970923     410.072087     120.416785       0.000000
    335.790969     431.443824     119.883080       0.000000
    317.205577     441.638084     123.530995       0.000000
    341.258710     449.302951     121.335313       0.000000
    336.513976     466.767573     124.390651       0.000000
    329.622791     473.227414     128.262712       0.000000
    330.072108     490.072044     131.738814       0.000000
    341.265823     488.893166     129.005998       0.000000
    330.000000     500.000000     131.897040       0.000000
    340.000000      10.000000     130.481756       0.000000
    346.880849      18.882474     130.181110       0.000000
    337.366988      30.109090     131.637629       0.000000
    345.789329      40.857660     128.053785       0.000000
    330.957855      38.264461     130.448451       0.000000
    337.880194      60.108897     125.353275       0.000000
    322.305747      46.972938     128.630678       0.000000
    336.911971      81.589008     123.134778       0.000000
    341.065871      89.688334     124.377457       0.000000
    341.517425     111.435705     126.702585       0.000000
    314.982621     100.577504     135.048241       0.000000
    342.202660     123.907576     129.811050       0.000000
    328.050801     123.332075     136.002123       0.000000
    347.872478     130.890514     127.271998       0.000000
    331.801996     139.962524     134.691113       0.000000
    339.805024     175.042932     120.453412       0.000000
    349.872018     178.540209     120.059179       0.000000
    353.376865     187.522989     119.395323       0.000000
    323.649100     188.967875     115.459565       0.000000
    341.911862     183.940966     119.020921       0.000000
    341.350166     203.527896     118.255857       0.000000
    337.571568     229.190350     125.825510       0.000000
    346.838984     230.438389     124.634389       0.000000
    341.856340     250.877101     127.407911       0.000000
    343.142082     241.420231     127.754438       0.000000
    345.168335     259.649917     124.915498       0.000000
    352.487279     252.421865     126.956895       0.000000
    346.432868     272.645239     121.710024       0.000000
    343.213664     295.236856     120.736052       0.000000
    332.702824     313.305991     120.631152       0.000000
    334.052046     321.641063     116.919467       0.000000
    343.569758     324.083889     115.789124       0.000000
    346.968334     341.891406     112.840717       0.000000
    355.757157     344.619527     113.644591       0.000000
    348.040093     363.167372     115.113850       0.000000
    334.061231     358.090701     115.617213       0.000000
    338.482169     366.833205     115.044933       0.000000
    346.849486     387.627234     116.034252       0.000000
    332.104775     383.765667     116.780236       0.000000
    336.831185     405.390000     117.807421       0.000000
    314.045653     412.413150     126.590638       0.000000
    331.433064     417.182631     118.648282       0.000000
    340.385916     419.355362     117.262787       0.000000
    330.036928     439.571946     121.298741       0.000000
    359.807307     433.685730     117.973662       0.000000
    339.754886     439.771834     120.450023       0.000000
    331.538624     455.377743     122.248706       0.000000
    343.889822     472.539640     124.815792       0.000000
    350.265507     489.295710     129.479696       0.000000
    340.000000     500.000000     129.827111       0.000000
    350.000000      10.000000     130.025969       0.000000
    355.973130      18.532874     129.390489       0.000000
    348.458212      29.594402     128.123113       0.000000
    356.872376      39.711150     124.059082       0.000000
    351.859223      47.152450     125.103461       0.000000
    352.265331      59.784372     123.911398       0.000000
    349.115651      74.722283     121.288964       0.000000
    349.110524      84.400629     121.757446       0.000000
    360.065553     101.388197     120.212160       0.000000
    360.844764     110.491252     121.203576       0.000000
    351.450078     117.617497     124.847773       0.000000
    356.685786     125.458303     125.035160       0.000000
    341.214561     137.729542     130.401627       0.000000
    340.307844     148.524875     130.051218       0.000000
    338.790283     165.444013     125.317893       0.000000
    349.349435     149.750762     127.125875       0.000000
    345.519318     158.409879     126.945498       0.000000
    349.804584     166.809940     123.098469       0.000000
    351.908811     198.033971     119.229401       0.000000
    342.826716     194.081556     118.221182       0.000000
    341.384778     212.468327     119.838308       0.000000
    359.622245     203.116537     121.928177       0.000000
    342.553935     221.594651     122.926589       0.000000
    353.104272     240.595985     127.235410       0.000000
    367.133296     240.251936     127.812630       0.000000
    360.468434     246.672997     127.455741       0.000000
    353.779281     266.445075     123.054088       0.000000
    366.283424     267.690755     122.109301       0.000000
    350.545939     284.188071     120.902206       0.000000
    328.611699     302.863733     120.962665       0.000000
    342.503951     314.960574     117.947987       0.000000
    361.516179     314.101621     116.426063       0.000000
    352.556767     316.526159     117.404706       0.000000
    353.516307     353.404752     113.721026       0.000000
    357.230762     361.444996     115.324125       0.000000
    348.993796     372.939451     115.896042       0.000000
    340.650482     376.639377     115.742289       0.000000
    354.433084     381.674288     117.284753       0.000000
    339.158799     394.020461     115.232930       0.000000
    357.796381     400.248381     115.613689       0.000000
    348.980715     396.734540     116.067165       0.000000
    346.356869     406.046059     115.718336       0.000000
    349.557139     428.515752     118.256816       0.000000
    351.516854     438.862352     119.550509       0.000000
    353.809833     456.678202     122.822267       0.000000
    344.818251     460.200321     122.042995       0.000000
    351.399331     467.188544     122.726972       0.000000
    338.295001     479.970538     127.585865       0.000000
    363.480266     491.488585     127.635468       0.000000
    350.000000     500.000000     130.560199       0.000000
    360.000000      10.000000     127.797754       0.000000
    366.825127      23.021460     125.631378       0.000000
    365.652331      35.552117     123.661366       0.000000
    358.978482      52.631710     123.648491       0.000000
    373.130014      52.795060     121.864734       0.000000
    367.426388      60.090825     122.655952       0.000000
    359.224426      66.247088     123.172756       0.000000
    369.659311      80.544864     120.357642       0.000000
    359.624095      87.944615     121.410215       0.000000
    368.547858     105.622281     119.914744       0.000000
    373.205849     115.234881     121.646933       0.000000
    358.101113     136.403587     124.662947       0.000000
    336.657967     157.098675     129.027977       0.000000
    328.936425     149.436318     134.019618       0.000000
    360.547618     145.250457     123.307916       0.000000
    363.017113     155.469013     123.185688       0.000000
    354.300525     158.200019     124.883239       0.000000
    358.462476     175.419537     121.364854       0.000000
    362.588717     193.581462     121.426150       0.000000
    371.395208     196.433696     123.235970       0.000000
    367.727944     206.914549     123.260703       0.000000
    350.747142     210.803541     121.285085       0.000000
    354.036469     223.070271     124.195396       0.000000
    376.167568     241.852414     127.168977       0.000000
    369.634004     250.010934     125.636042       0.000000
    360.436029     257.781247     125.959026       0.000000
    376.547107     270.337849     118.009436       0.000000
    362.118193     287.991467     117.564807       0.000000
    351.149908     306.196626     119.011973       0.000000
    338.431298     303.635075     120.538682       0.000000
    360.844209     300.861900     117.579876       0.000000
    366.367259     334.241074     116.436282       0.000000
    353.501945     335.745228     115.225277       0.000000
    372.997532     340.593023     115.935401       0.000000
    365.109834     345.338102     115.674982       0.000000
    363.219423     354.289144     115.401028       0.000000
    358.003276     371.027603     115.625956       0.000000
    362.967899     378.825305     116.252534       0.000000
    366.305533     394.872656     116.052722       0.000000
    356.979219     411.380717     115.499349       0.000000
    367.453430     405.136084     115.822289       0.000000
    349.975699     419.936578     114.847900       0.000000
    372.631932     437.945199     119.846664       0.000000
    362.901546     441.641647     121.105412       0.000000
    361.343863     450.457020     122.729001       0.000000
    358.041536     473.723821     124.588029       0.000000
    359.150778     483.171752     127.733499       0.000000
    350.724039     478.522336     127.028708       0.000000
    371.908720     487.244143     125.166396       0.000000
    360.000000     500.000000     128.952196       0.000000
    370.000000      10.000000     126.265003       0.000000
    376.549692      21.087890     123.569122       0.000000
    358.442238      29.805791     126.286803       0.000000
    366.515927      45.641889     122.368904       0.000000
    377.097894      64.112350     122.104216       0.000000
    359.100564      77.404818     120.810798       0.000000
    376.426341      73.937836     121.190697       0.000000
    393.181824      83.346347     117.441273       0.000000
    368.617737      90.053957     120.570375       0.000000
    349.625933     104.024465     122.825660       0.000000
    380.467248     127.928186     122.015096       0.000000
    363.263969     119.424152     122.845966       0.000000
    370.686183     129.109276     121.648714       0.000000
    389.477044     127.634169     122.898874       0.000000
    350.242462     140.690925     126.465634       0.000000
    368.280515     140.250164     121.744350       0.000000
    370.978491     150.106196     121.616230       0.000000
    367.237362     173.410796     123.400084       0.000000
    367.093758     185.316702     120.997018       0.000000
    372.426763     214.539538     125.794543       0.000000
    359.289579     212.533903     123.585602       0.000000
    365.593931     221.776320     127.076680       0.000000
    360.242440     233.551290     126.634919       0.000000
    368.277672     230.294479     129.567080       0.000000
    377.838760     253.792944     124.084877       0.000000
    373.335413     261.855311     123.312910       0.000000
    385.430640     258.153027     120.472648       0.000000
    358.924956     279.106790     119.078888       0.000000
    370.609433     295.687124     116.997967       0.000000
    353.296175     295.276528     119.195471       0.000000
    367.786575     307.518163     116.753230       0.000000
    390.374325     320.825675     115.448407       0.000000
    358.591775     327.693074     116.970748       0.000000
    385.065507     330.005444     115.235238       0.000000
    375.724137     328.941177     116.640947       0.000000
    372.720376     353.100454     114.367248       0.000000
    368.968885     361.788262     114.452902       0.000000
    369.112256     372.087286     115.887912       0.000000
    358.039786     390.199726     116.315403       0.000000
    377.223636     403.673992     117.898225       0.000000
    381.852523     422.332295     118.846413       0.000000
    371.149259     427.091949     117.477886       0.000000
    362.982176     421.751913     116.027909       0.000000
    375.034983     446.239940     122.626439       0.000000
    379.464667     454.180015     124.245385       0.000000
    360.078777     464.203151     122.546615       0.000000
    367.593070     458.597116     122.478802       0.000000
    368.176166     478.114167     125.485974       0.000000
    380.679053     490.994906     125.003835       0.000000
    370.000000     500.000000     126.419723       0.000000
    380.000000      10.000000     124.789573       0.000000
    387.879870      18.721956     123.495867       0.000000
    374.406074      32.660365     122.704683       0.000000
    384.161498      47.429652     122.909813       0.000000
    393.420724      37.984481     122.126958       0.000000
    383.864922      57.001023     121.647131       0.000000
    367.208477      71.097922     121.800540       0.000000
    385.523492      66.966469     119.449421       0.000000
    377.421983     100.946432     120.052515       0.000000
    381.769497     109.031026     120.542654       0.000000
    390.507047     112.845233     120.488469       0.000000
    383.302433     118.116919     122.099111       0.000000
    381.054600     145.230144     120.939168       0.000000
    377.033924     136.664224     121.505220       0.000000
    372.023769     161.013406     123.060884       0.000000
    391.436820     149.827649     123.312992       0.000000
    361.827406     164.700433     123.419505       0.000000
    375.638745     170.783148     125.397930       0.000000
    377.631245     189.657529     123.432252       0.000000
    383.892444     211.579290     127.188857       0.000000
    384.202959     221.580315     128.528805       0.000000
    397.954846     227.438554     126.647587       0.000000
    375.327754     223.077767     128.406234       0.000000
    388.287271     230.793148     128.551767       0.000000
    377.713837     232.575041     128.615382       0.000000
    386.039470     266.894413     117.829578       0.000000
    380.856680     279.684066     116.198319       0.000000
    369.465748     276.330492     118.623062       0.000000
    371.826774     285.539947     117.020766       0.000000
    379.929990     296.283844     115.942540       0.000000
    368.972152     320.513550     116.208897       0.000000
    389.750784     306.765031     114.624603       0.000000
    383.261445     339.037587     116.074049       0.000000
    380.174280     347.833898     114.967038       0.000000
    387.548098     352.340460     117.921813       0.000000
    379.203938     362.011348     117.781700       0.000000
    378.641105     371.561502     118.384290       0.000000
    393.913976     377.259293     125.771032       0.000000
    378.708890     381.173651     119.497782       0.000000
    370.275181     386.423209     117.465576       0.000000
    370.566204     415.364115     116.475141       0.000000
    389.890352     429.656832     120.979639       0.000000
    383.420338     442.330788     122.295113       0.000000
    380.279546     432.535580     119.110294       0.000000
    390.931390     447.452199     124.552677       0.000000
    376.563893     463.041231     123.519270       0.000000
    369.332933     469.201384     123.882122       0.000000
    380.440987     481.685251     125.483893       0.000000
    389.795468     474.969503     124.677857       0.000000
    380.000000     500.000000     124.750822       0.000000
    390.000000      10.000000     124.331291       0.000000
    397.006763      20.870999     123.426705       0.000000
    376.176680      42.726807     122.822634       0.000000
    384.060824      37.754348     124.090724       0.000000
    399.463159      44.751267     121.034341       0.000000
    392.446800      51.891478     121.413756       0.000000
    391.400804      74.014957     117.663639       0.000000
    400.779534      75.955813     117.970964       0.000000
    383.310717      79.023697     117.889381       0.000000
    377.279711      86.415542     119.002784       0.000000
    392.265110     103.238555     116.978114       0.000000
    407.818373     113.367308     121.724883       0.000000
    399.367486     130.761398     122.145475       0.000000
    391.878522     137.711858     122.416977       0.000000
    381.745265     155.707583     121.807337       0.000000
    390.120746     158.693800     125.473150       0.000000
    383.068404     164.907918     125.803358       0.000000
    385.652423     177.080662     125.617482       0.000000
    377.539995     204.826806     125.026260       0.000000
    384.206785     196.712327     124.598848       0.000000
    391.503328     203.086490     127.858574       0.000000
    393.276890     215.566786     127.460095       0.000000
    408.418716     226.890128     124.773933       0.000000
    403.098348     237.712052     123.416686       0.000000
    394.171758     238.565688     125.325245       0.000000
    385.343368     239.843324     127.464854       0.000000
    394.099837     255.440892     120.890970       0.000000
    384.990672     288.177526     116.190956       0.000000
    392.697595     296.091866     114.911604       0.000000
    379.209890     317.452591     116.672399       0.000000
    378.878303     306.281157     116.328439       0.000000
    403.366680     304.582481     114.678967       0.000000
    394.152186     334.257819     116.658247       0.000000
    391.763644     343.598142     117.342205       0.000000
    398.377442     350.011925     120.633555       0.000000
    390.947562     366.281338     123.947098       0.000000
    385.478086     375.006797     123.270445       0.000000
    399.987149     386.095969     128.377532       0.000000
    388.295650     386.420216     125.228910       0.000000
    380.123229     390.556260     120.696667       0.000000
    387.464308     396.569614     122.985374       0.000000
    380.616652     413.121568     117.728606       0.000000
    419.962836     415.560362     131.921571       0.000000
    396.756233     435.642417     125.675216       0.000000
    388.671956     456.389853     125.382668       0.000000
    385.672618     465.237037     124.842701       0.000000
    379.246082     472.729058     124.673971       0.000000
    397.385529     481.005340     126.213886       0.000000
    393.812347     489.474218     125.331962       0.000000
    390.000000     500.000000     125.360061       0.000000
    400.000000      10.000000     123.689444       0.000000
    406.652072      22.934695     124.349983       0.000000
    383.467651      28.213247     122.884293       0.000000
    392.817801      28.935836     121.255801       0.000000
    413.905506      49.936926     121.292576       0.000000
    401.397281      54.125203     119.674673       0.000000
    394.679456      65.538562     119.139221       0.000000
    402.067433      86.743641     118.039097       0.000000
    401.477673     105.480209     119.189393       0.000000
    385.583970      92.055252     116.178116       0.000000
    395.735157      93.521168     116.149642       0.000000
    398.821944     116.930478     121.414474       0.000000
    400.467176     144.527719     124.573339       0.000000
    418.663136     141.772083     125.368751       0.000000
    409.277000     141.127139     124.413382       0.000000
    408.534980     150.172084     127.901276       0.000000
    392.830297     171.782320     127.686718       0.000000
    397.895975     184.815333     128.922596       0.000000
    376.506453     180.714182     123.590711       0.000000
    388.327218     188.145432     125.654647       0.000000
    396.049510     193.800630     128.465090       0.000000
    399.948794     209.343620     128.057268       0.000000
    415.646101     233.636441     123.474610       0.000000
    416.656669     221.851378     123.616740       0.000000
    398.936895     245.580990     122.019456       0.000000
    387.213459     249.991390     124.193876       0.000000
    404.182733     254.979176     120.432021       0.000000
    390.100470     274.694102     114.638961       0.000000
    394.603887     287.015471     113.916414       0.000000
    402.970406     291.464837     113.011983       0.000000
    411.707928     309.364753     117.377221       0.000000
    401.122082     315.525476     115.882586       0.000000
    398.341902     325.610079     115.466920       0.000000
    410.100467     340.569347     120.449810       0.000000
    400.806537     340.369852     118.271579       0.000000
    398.307811     359.299925     124.002355       0.000000
    405.818949     378.415936     129.346544       0.000000
    403.638490     366.875882     128.586467       0.000000
    421.117209     396.648264     132.981287       0.000000
    409.558719     397.141927     130.769587       0.000000
    397.323907     398.057341     127.797041       0.000000
    385.772768     406.200583     121.985055       0.000000
    389.868270     416.513393     122.536340       0.000000
    396.309212     423.252593     124.969062       0.000000
    404.023796     443.603531     126.927116       0.000000
    407.659822     471.635448     127.505720       0.000000
    399.433309     453.660237     126.298366       0.000000
    398.421738     471.569848     126.910809       0.000000
    403.662289     491.563828     124.524694       0.000000
    400.000000     500.000000     124.874055       0.000000
    410.000000      10.000000     124.642101       0.000000
    413.570320      29.553876     124.525514       0.000000
    401.373293      31.806424     121.862245       0.000000
    409.602871      39.292495     122.243803       0.000000
    427.117860      65.039829     121.125220       0.000000
    409.976906      58.722141     119.594897       0.000000
    404.154610      66.621550     118.929592       0.000000
    406.923458      96.830067     118.212537       0.000000
    413.044202      84.947675     119.288466       0.000000
    419.264133      95.571115     119.254054       0.000000
    415.714829     105.934607     120.586260       0.000000
    410.220762     126.869942     122.219840       0.000000
    430.749961     137.285775     126.932129       0.000000
    426.709535     145.858759     128.079013       0.000000
    400.672664     155.068036     126.684389       0.000000
    417.904492     160.542617     130.047083       0.000000
    408.252303     160.058767     129.112458       0.000000
    404.688337     173.517007     128.319032       0.000000
    404.339869     198.304281     128.275211       0.000000
    413.707836     197.134346     127.370896       0.000000
    409.968020     206.042061     127.259827       0.000000
    402.984727     218.896773     126.518989       0.000000
    411.035179     214.899993     125.146893       0.000000
    408.866653     245.198465     122.693773       0.000000
    414.742430     254.255640     120.281737       0.000000
    417.864381     265.932415     117.172360       0.000000
    407.908481     266.084276     115.648911       0.000000
    398.863438     263.023101     118.029109       0.000000
    398.904163     271.830469     115.153550       0.000000
    419.735781     302.995348     118.113231       0.000000
    421.295169     315.281547     120.099044       0.000000
    405.658728     330.809824     116.939289       0.000000
    422.220625     336.120350     123.721727       0.000000
    417.947678     353.184737     129.023210       0.000000
    407.215366     349.813904     124.192320       0.000000
    413.548501     367.040726     131.544717       0.000000
    409.038361     357.409125     129.229781       0.000000
    409.991390     387.606179     130.779245       0.000000
    429.957576     393.677627     132.899432       0.000000
    413.448900     408.235390     130.782967       0.000000
    404.588884     405.603196     129.925156       0.000000
    396.064368     408.615794     126.919383       0.000000
    403.433968     416.725157     129.045570       0.000000
    409.544006     436.355099     128.853754       0.000000
    404.502799     426.083809     128.392373       0.000000
    408.403249     452.699039     127.989271       0.000000
    418.029778     470.990236     127.831057       0.000000
    406.936289     482.874748     125.656245       0.000000
    413.117097     489.447750     126.343654       0.000000
    410.000000     500.000000     125.301782       0.000000
    420.000000      10.000000     127.186442       0.000000
    415.052628      19.597763     124.006122       0.000000
    421.513151      33.846142     125.501600       0.000000
    420.710463      55.798768     122.217194       0.000000
    428.001281      47.201077     123.309130       0.000000
    430.536760      56.157256     122.814567       0.000000
    416.318903      66.148964     118.920263       0.000000
    410.263509      74.100238     118.012759       0.000000
    425.186250      85.706695     120.125897       0.000000
    432.458646      93.310383     119.193216       0.000000
    425.481385     103.521652     121.468338       0.000000
    418.719448     114.419248     123.507634       0.000000
    418.648190     129.947714     123.864720       0.000000
    434.885020     122.772125     128.779774       0.000000
    436.283700     146.212353     130.058046       0.000000
    417.744595     150.560336     127.988530       0.000000
    399.385902     164.827378     126.555376       0.000000
    413.503995     172.243913     130.025278       0.000000
    414.658493     181.896936     129.836732       0.000000
    407.841168     188.168431     128.734037       0.000000
    419.965011     213.105546     125.595398       0.000000
    427.443534     218.918713     124.719766       0.000000
    427.750837     230.989049     123.906855       0.000000
    440.553284     242.864901     127.473765       0.000000
    428.346368     241.984311     124.975596       0.000000
    419.949623     246.728538     122.690154       0.000000
    424.385995     275.600447     119.044148       0.000000
    403.308035     281.594948     113.677485       0.000000
    410.227919     298.172708     115.016777       0.000000
    411.006362     318.473767     117.309842       0.000000
    429.691936     320.364939     122.106203       0.000000
    415.048884     332.250950     119.682269       0.000000
    418.576830     323.947794     119.148793       0.000000
    420.803412     345.242643     125.014255       0.000000
    427.416034     355.195817     129.863025       0.000000
    423.053208     364.350107     131.551657       0.000000
    414.188142     376.884486     132.538432       0.000000
    418.466526     385.508044     133.157351       0.000000
    423.850478     373.817364     132.866021       0.000000
    422.707767     406.624999     131.423955       0.000000
    411.933830     419.780472     130.572700       0.000000
    429.302745     419.338343     131.698949       0.000000
    424.851450     428.090791     131.989519       0.000000
    415.680143     444.264897     129.019578       0.000000
    404.644515     461.037536     127.736597       0.000000
    395.657668     462.461899     126.632843       0.000000
    427.439817     471.028508     127.854479       0.000000
    418.382257     481.319933     127.787300       0.000000
    423.777531     489.912244     128.714910       0.000000
    420.000000     500.000000     127.030172       0.000000
    430.000000      10.000000     128.197027       0.000000
    423.982971      19.797521     125.804714       0.000000
    431.960476      28.535472     125.986481       0.000000
    418.873460      42.358442     123.500309       0.000000
    436.422700      64.215797     121.889173       0.000000
    432.595668      73.992626     120.135997       0.000000
    422.805372      76.230079     119.100929       0.000000
    435.268189      83.512339     119.835466       0.000000
    441.936609      99.073675     121.214013       0.000000
    451.860988      87.321590     119.372569       0.000000
    434.452488     104.105296     122.184604       0.000000
    427.905672     113.143844     124.913611       0.000000
    426.155185     123.334717     126.459371       0.000000
    443.739932     119.565654     127.462931       0.000000
    438.612637     133.108446     128.728790       0.000000
    432.214071     166.125588     130.480572       0.000000
    422.326100     170.396312     130.843985       0.000000
    434.062759     177.416634     129.549543       0.000000
    424.518593     181.947645     128.443136       0.000000
    419.922957     190.148575     127.638615       0.000000
    421.691885     203.707962     126.923186       0.000000
    431.177500     206.030726     127.255438       0.000000
    437.109124     226.131760     125.097067       0.000000
    435.802972     235.072336     125.637255       0.000000
    437.160406     253.772678     127.243363       0.000000
    428.590238     250.944540     123.882478       0.000000
    426.327142     286.586219     120.683420       0.000000
    411.120063     277.284095     114.902529       0.000000
    410.936786     287.184835     113.100382       0.000000
    419.331748     292.087013     116.515785       0.000000
    429.356903     296.912071     120.430523       0.000000
    441.237415     321.566393     124.249993       0.000000
    433.259978     337.506168     128.196649       0.000000
    430.266274     329.717818     124.001636       0.000000
    429.369237     346.075475     128.434284       0.000000
    441.585048     342.832465     129.496078       0.000000
    433.186495     371.441945     131.892364       0.000000
    443.823974     386.911691     130.821729       0.000000
    427.826196     382.091222     133.304480       0.000000
    432.786856     404.878069     131.440892       0.000000
    444.014895     425.744798     127.637993       0.000000
    435.284951     428.091534     128.562462       0.000000
    415.732388     429.664281     131.010171       0.000000
    424.443748     438.660753     130.442746       0.000000
    418.956293     454.995042     128.930640       0.000000
    414.074306     462.721428     128.556396       0.000000
    423.218178     463.090907     128.598550       0.000000
    435.956040     468.067859     127.211792       0.000000
    429.832893     479.778275     128.762113       0.000000
    430.000000     500.000000     128.339375       0.000000
    440.000000      10.000000     127.803336       0.000000
    434.454399      18.553049     126.925069       0.000000
    443.853773      19.198224     126.981422       0.000000
    430.330631      38.306361     124.279012       0.000000
    447.335824      48.302322     125.322687       0.000000
    449.167041      63.940491     121.180282       0.000000
    442.715308      70.692392     120.345285       0.000000
    446.156271      80.071139     120.302197       0.000000
    459.618473      79.783436     118.816440       0.000000
    441.536189      90.062805     120.311633       0.000000
    461.303753     114.364116     125.560280       0.000000
    448.908720     109.407388     124.512082       0.000000
    438.158212     112.596408     124.809079       0.000000
    448.320810     157.723871     131.059859       0.000000
    446.223586     148.980697     131.618651       0.000000
    449.432748     178.380893     128.955681       0.000000
    426.111706     156.651281     129.419978       0.000000
    442.809570     185.189247     129.647961       0.000000
    434.586865     188.721230     127.699961       0.000000
    440.153227     207.719355     127.578546       0.000000
