    167.451359     362.498186     137.942339       0.000000
    174.060397     368.772772     137.532363       0.000000
    163.354833     373.102666     138.622782       0.000000
    165.214285     382.919867     135.984151       0.000000
    160.192902     391.707273     132.167284       0.000000
    161.720227     404.830399     128.141745       0.000000
    159.661303     414.255399     125.301633       0.000000
    178.840169     407.704368     126.542645       0.000000
    161.582429     423.331370     122.189352       0.000000
    157.779874     441.187987     117.278817       0.000000
    184.844786     458.908038     117.825411       0.000000
    149.146201     465.410123     116.133933       0.000000
    195.703071     458.480276     118.741839       0.000000
    174.824256     479.225769     119.940044       0.000000
    167.214312     488.986383     122.742914       0.000000
    170.000000     500.000000     125.758341       0.000000
    180.000000      10.000000     128.057795       0.000000
    168.046394      18.779115     128.982496       0.000000
    177.059217      20.100426     129.167414       0.000000
    182.159824      27.578039     127.537642       0.000000
    184.986401      48.669092     125.516009       0.000000
    179.336773      62.677721     125.791842       0.000000
    179.840930      91.040295     128.810752       0.000000
    189.300821      95.969451     126.197002       0.000000
    168.474726     108.295402     130.285474       0.000000
    180.689915     110.598542     132.085640       0.000000
    191.370439     113.934906     132.756280       0.000000
    190.746989     130.037232     134.109738       0.000000
    175.895241     127.208775     133.862308       0.000000
    180.566828     145.820150     134.437788       0.000000
    173.575808     154.569080     133.928004       0.000000
    167.455836     162.273585     133.102434       0.000000
    175.174442     182.779096     130.002720       0.000000
    183.003602     193.433832     126.731238       0.000000
    172.216415     207.661308     124.002661       0.000000
    172.636567     218.505302     119.189087       0.000000
    186.161410     208.617306     118.385228       0.000000
    195.720623     210.184580     115.600944       0.000000
    194.465695     233.783696     115.770074       0.000000
    181.175779     240.067901     118.987490       0.000000
    171.491382     262.698473     124.261807       0.000000
    155.518753     257.876215     115.772195       0.000000
    177.117735     270.387548     128.022864       0.000000
    185.937311     285.460019     129.297236       0.000000
    184.367623     296.149763     128.928594       0.000000
    189.822276     303.177177     126.698425       0.000000
    185.299092     315.503870     124.304906       0.000000
    175.152117     318.671645     123.618853       0.000000
    173.394281     328.211637     126.351237       0.000000
    177.705341     341.068257     128.847672       0.000000
    184.893021     351.620678     131.383937       0.000000
    186.300658     367.311966     132.928118       0.000000
    182.520268     375.422952     134.855628       0.000000
    174.267283     379.821759     136.540465       0.000000
    172.570592     402.116723     130.026019       0.000000
    169.210425     393.161321     132.246798       0.000000
    189.252988     391.575255     129.278339       0.000000
    189.331910     402.225105     126.577250       0.000000
    170.378973     421.773168     123.640157       0.000000
    171.462055     432.877367     119.369782       0.000000
    167.313713     462.350578     115.270805       0.000000
    189.500564     446.277734     119.358744       0.000000
    193.499898     467.221832     120.779121       0.000000
    182.002512     467.953330     118.521370       0.000000
    177.594393     490.135935     124.588434       0.000000
    180.000000     500.000000     126.779865       0.000000
    190.000000      10.000000     127.447912       0.000000
    188.691838      19.883365     126.488722       0.000000
    202.502758      37.393110     122.972365       0.000000
    198.774404      50.334248     121.574895       0.000000
    187.554385      67.204711     124.477840       0.000000
    190.625426      57.904693     123.500188       0.000000
    181.342784      80.469817     126.405006       0.000000
    189.101734      85.996132     124.948841       0.000000
    199.085484      97.366746     125.251833       0.000000
    177.430128      99.981449     129.506502       0.000000
    186.571544     103.961001     130.245691       0.000000
    199.186238     133.579258     132.738994       0.000000
    181.588886     135.444070     136.121705       0.000000
    198.327434     155.678415     130.787797       0.000000
    189.597381     175.529931     126.698710       0.000000
    203.175724     176.985312     124.531249       0.000000
    202.469892     188.211906     121.978149       0.000000
    183.882818     184.446152     127.903678       0.000000
    193.997075     183.338661     125.284420       0.000000
    194.342010     192.030831     122.765422       0.000000
    179.675740     202.570957     123.102627       0.000000
    201.052493     197.372496     118.030964       0.000000
    198.764534     218.995512     113.838128       0.000000
    184.157697     248.642664     121.678755       0.000000
    198.230720     250.894155     122.539071       0.000000
    180.384222     261.475067     125.850435       0.000000
    203.561522     266.435090     127.059427       0.000000
    198.470664     274.348145     130.305964       0.000000
    204.883282     293.523166     128.311580       0.000000
    195.031645     286.071969     130.039374       0.000000
    182.360301     326.042451     124.479266       0.000000
    193.105627     328.998731     123.562469       0.000000
    186.053239     334.862237     125.407773       0.000000
    187.776452     343.664149     127.496773       0.000000
    195.823493     347.707477     126.532557       0.000000
    180.304888     360.847959     134.748244       0.000000
    197.366517     365.486238     128.730084       0.000000
    190.227673     382.533560     131.307809       0.000000
    181.650657     385.235237     132.537726       0.000000
    180.335882     397.432562     130.721379       0.000000
    200.936263     409.411354     123.823253       0.000000
    179.959942     416.878401     124.172739       0.000000
    188.708453     412.655830     124.326135       0.000000
    178.328518     427.509052     122.129246       0.000000
    176.802809     447.784610     117.788846       0.000000
    199.182513     449.706121     118.550148       0.000000
    198.607129     475.515024     123.400338       0.000000
    186.835482     480.876537     122.736490       0.000000
    189.984480     490.537759     125.586454       0.000000
    190.000000     500.000000     126.443873       0.000000
    200.000000      10.000000     127.162002       0.000000
    201.336690      19.391096     126.465304       0.000000
    192.607712      42.592340     124.318933       0.000000
    197.018335      29.246138     124.209025       0.000000
    199.411186      59.892191     121.561668       0.000000
    177.012992      72.317996     127.093660       0.000000
    190.541766      77.053135     124.489358       0.000000
    208.565331      88.821758     122.924823       0.000000
    199.247119      86.849182     122.766603       0.000000
    206.472727     102.702970     126.970615       0.000000
    196.839870     106.244405     128.859378       0.000000
    208.227601     123.769047     131.858443       0.000000
    189.487684     142.266034     133.837537       0.000000
    186.394060     153.293889     132.104807       0.000000
    198.450586     144.340287     133.179496       0.000000
    209.991664     160.376381     127.610562       0.000000
    176.958490     164.565358     132.058921       0.000000
    217.603659     175.597457     121.883046       0.000000
    220.038509     193.095886     113.387267       0.000000
    210.087033     182.269696     122.211113       0.000000
    211.408422     200.233601     112.343042       0.000000
    188.907695     200.181176     121.005137       0.000000
    203.899587     205.953499     114.777941       0.000000
    185.019798     231.536466     117.063260       0.000000
    201.570116     243.619375     117.896974       0.000000
    192.560393     243.397614     119.424060       0.000000
    175.072807     253.682278     122.504762       0.000000
    188.453083     275.374607     129.079903       0.000000
    190.780691     266.561189     127.663276       0.000000
    195.694390     295.245291     128.975914       0.000000
    195.095564     320.057286     123.152168       0.000000
    205.188236     327.699496     121.651340       0.000000
    214.249700     329.150421     121.883432       0.000000
    197.661124     337.316809     123.318232       0.000000
    205.064162     347.722510     124.224712       0.000000
    190.809161     358.867670     130.707958       0.000000
    205.838580     380.452986     125.910377       0.000000
    198.404268     387.536896     127.177316       0.000000
    196.306499     375.272818     129.291801       0.000000
    211.851231     402.128085     122.594414       0.000000
    198.791741     400.284407     126.156026       0.000000
    197.373688     418.792673     121.535438       0.000000
    195.510160     427.427529     119.781307       0.000000
    187.846253     422.040039     120.770057       0.000000
    188.343957     432.954495     120.194497       0.000000
    204.167922     463.658278     119.523799       0.000000
    207.140916     472.176641     120.943039       0.000000
    208.476490     481.388248     122.959494       0.000000
    199.424345     487.180132     124.938508       0.000000
    200.000000     500.000000     126.447146       0.000000
    210.000000      10.000000     125.434737       0.000000
    210.880145      19.506778     124.286294       0.000000
    222.694156      38.667065     118.577303       0.000000
    209.934338      28.390416     122.794493       0.000000
    209.336605      57.779391     119.455515       0.000000
    197.286368      71.107576     122.950772       0.000000
    224.513035      65.596736     118.897384       0.000000
    204.594765      77.895060     123.537727       0.000000
    229.901181      83.836015     119.688436       0.000000
    216.259626      98.652444     125.361781       0.000000
    212.668065     109.641106     129.108431       0.000000
    202.387775     113.868221     132.007879       0.000000
    198.353158     122.923252     132.820266       0.000000
    206.965236     137.785452     130.720352       0.000000
    215.744146     143.737818     128.809929       0.000000
    186.689046     162.543718     130.387468       0.000000
    208.019187     169.150304     125.620812       0.000000
    218.631429     165.571550     123.451581       0.000000
    232.056247     189.779807     111.502959       0.000000
    210.895339     193.075786     118.044047       0.000000
    221.063918     211.557922     108.965466       0.000000
    221.994843     201.268928     109.692284       0.000000
    208.272653     220.261348     112.183070       0.000000
    206.514486     230.496263     113.969303       0.000000
    210.612046     247.027204     120.208052       0.000000
    206.812166     254.448678     123.778545       0.000000
    188.728802     257.315101     125.225100       0.000000
    213.264247     273.467368     128.318828       0.000000
    213.965241     288.114853     129.083375       0.000000
    203.930729     303.296385     125.962035       0.000000
    195.155427     310.522660     124.912631       0.000000
    205.056730     317.469573     121.622146       0.000000
    224.368699     319.220905     121.545583       0.000000
    209.247040     338.079486     122.705531       0.000000
    214.730465     347.493811     122.038240       0.000000
    198.657757     356.352019     126.845100       0.000000
    214.254174     387.245336     122.419292       0.000000
    205.589666     393.318166     124.082157       0.000000
    229.475285     393.035347     122.780197       0.000000
    218.613377     395.751657     122.222654       0.000000
    209.830449     413.356828     122.123491       0.000000
    219.182833     420.090571     121.499874       0.000000
    196.907314     439.161696     119.321743       0.000000
    207.722163     443.291964     117.361046       0.000000
    215.556502     448.287773     114.828126       0.000000
    209.217309     455.503096     117.629264       0.000000
    214.061551     463.390035     118.371454       0.000000
    217.298834     482.063474     120.937773       0.000000
    207.719533     490.904049     124.266119       0.000000
    210.000000     500.000000     124.697051       0.000000
    220.000000      10.000000     124.017265       0.000000
    223.304478      18.370070     123.704026       0.000000
    221.193538      30.164287     121.983594       0.000000
    212.823205      37.188814     120.049506       0.000000
    207.802708      47.423301     119.628024       0.000000
    207.121865      68.654699     121.984576       0.000000
    235.635666      64.262383     117.029440       0.000000
    216.465338      70.732428     120.473634       0.000000
    215.267424      79.676550     122.889632       0.000000
    217.614441      88.643438     123.686894       0.000000
    221.808740     112.108778     128.738278       0.000000
    216.455600     120.392484     129.987361       0.000000
    213.695176     131.350216     130.207898       0.000000
    223.353097     132.445094     128.373255       0.000000
    226.337606     146.677867     128.030114       0.000000
    210.283268     151.658521     130.018783       0.000000
    197.383938     167.448367     127.639931       0.000000
    222.236368     183.451948     116.965499       0.000000
    230.380949     179.362978     116.929732       0.000000
    232.586765     204.943951     110.117570       0.000000
    219.279870     220.406804     112.943075       0.000000
    211.765420     211.171444     112.298590       0.000000
    217.972385     229.568734     114.432376       0.000000
    212.489512     238.168539     116.361333       0.000000
    217.513423     255.941420     123.838388       0.000000
    229.931636     263.772824     127.461360       0.000000
    197.585742     260.176899     124.464804       0.000000
    207.801175     280.847514     130.533864       0.000000
    221.990252     277.216290     129.209454       0.000000
    211.420193     310.749146     125.365664       0.000000
    214.458519     301.143765     126.158648       0.000000
    233.189465     321.152896     121.798797       0.000000
    215.197528     319.883496     123.085716       0.000000
    224.616797     329.056242     121.279020       0.000000
    220.561856     338.429620     121.592450       0.000000
    210.278252     359.407042     124.065230       0.000000
    206.446931     367.739748     125.592086       0.000000
    224.108843     384.827051     123.278718       0.000000
    224.933606     402.722158     123.321592       0.000000
    218.055408     409.231147     123.135845       0.000000
    206.197341     422.548471     121.135216       0.000000
    207.709488     431.749866     119.330163       0.000000
    216.481963     429.344117     119.498460       0.000000
    226.715364     438.568698     115.562599       0.000000
    215.002316     437.735775     116.527358       0.000000
    220.903904     456.764612     116.860103       0.000000
    216.190971     472.945210     119.864921       0.000000
    226.371055     478.382628     119.345059       0.000000
    219.405526     490.566374     123.155592       0.000000
    220.000000     500.000000     124.896186       0.000000
    230.000000      10.000000     122.917303       0.000000
    236.973976      18.586780     121.474031       0.000000
    232.960992      36.272696     117.743629       0.000000
    220.927460      47.905100     117.676103       0.000000
    229.054795      53.877419     116.341721       0.000000
    220.554976      57.333969     118.498180       0.000000
    244.811349      65.804708     116.217647       0.000000
    223.930746      76.160639     120.361992       0.000000
    232.791732      74.207802     118.489734       0.000000
    225.762132     102.409469     125.547659       0.000000
    234.392798     106.573614     126.072333       0.000000
    233.311317     126.548692     128.687654       0.000000
    225.190225     122.622774     128.927912       0.000000
    231.888192     135.644756     127.619729       0.000000
    220.131488     153.630033     126.969988       0.000000
    228.466057     158.412956     123.923168       0.000000
    230.553709     170.655546     119.354691       0.000000
    245.823639     168.513048     119.495759       0.000000
    251.283278     191.904284     113.126656       0.000000
    240.444229     184.054410     112.209756       0.000000
    241.990691     210.780299     111.879695       0.000000
    240.261038     220.699302     111.700124       0.000000
    225.830700     245.155199     120.177082       0.000000
    226.382232     253.837914     122.811031       0.000000
    236.796117     255.201259     123.149269       0.000000
    240.724676     262.141330     127.595462       0.000000
    233.605921     272.446459     129.831425       0.000000
    212.416959     263.414325     125.972437       0.000000
    234.140125     291.123891     129.451180       0.000000
    228.792648     301.058992     127.454911       0.000000
    223.060958     308.891087     125.134299       0.000000
    249.360630     331.521412     119.617009       0.000000
    240.030178     329.202064     119.317905       0.000000
    232.592770     336.173055     120.802555       0.000000
    216.197026     367.558562     123.285358       0.000000
    243.262554     363.851567     122.216929       0.000000
    231.665764     362.566354     119.456543       0.000000
    216.725908     378.471473     122.330622       0.000000
    228.761019     376.490477     121.845858       0.000000
    239.274405     393.503874     123.106094       0.000000
    235.657200     416.571971     123.281372       0.000000
    244.313494     416.050655     125.794630       0.000000
    228.323302     425.069358     120.889227       0.000000
    233.775586     432.785042     119.080030       0.000000
    228.888036     447.993672     114.069830       0.000000
    242.705981     459.103052     116.759627       0.000000
    224.426042     468.093714     117.418768       0.000000
    235.977494     482.217904     117.975497       0.000000
    228.583367     490.006961     121.771290       0.000000
    230.000000     500.000000     122.770601       0.000000
    240.000000      10.000000     121.831093       0.000000
    230.661376      25.258203     121.560708       0.000000
    233.860649      45.858722     115.931152       0.000000
    248.694041      45.575202     117.779257       0.000000
    241.227344      40.511327     116.795815       0.000000
    238.030709      55.587915     115.321593       0.000000
    257.423831      63.943121     117.391407       0.000000
    242.923731      74.995447     116.319564       0.000000
    247.617025      91.303025     120.645357       0.000000
    238.469284      86.778255     119.205768       0.000000
    229.474866      93.853683     121.779652       0.000000
    230.450840     114.827976     128.107364       0.000000
    237.539417     145.041279     127.184210       0.000000
    252.532567     138.843274     128.368666       0.000000
    247.200733     149.275653     127.497571       0.000000
    238.466694     153.675809     124.499028       0.000000
    241.570506     175.485114     115.346555       0.000000
    250.962116     182.557673     113.581975       0.000000
    267.480470     184.458368     115.619243       0.000000
    242.508717     198.818780     111.075869       0.000000
    232.636051     215.061235     110.852610       0.000000
    228.170098     223.256614     111.888073       0.000000
    224.485508     236.241760     116.118709       0.000000
    234.860561     241.962564     118.148424       0.000000
    243.970916     249.079736     121.998458       0.000000
    249.949744     265.679475     128.851991       0.000000
    242.375051     274.885287     129.456698       0.000000
    221.408735     267.273058     128.267996       0.000000
    224.229974     289.926075     129.757935       0.000000
    231.779047     312.281592     124.271957       0.000000
    238.883674     302.273510     126.275724       0.000000
    241.470983     313.979510     124.367782       0.000000
    234.857040     344.976106     120.288858       0.000000
    225.907430     346.452883     120.874939       0.000000
    223.857035     356.710925     120.546210       0.000000
    257.054218     368.303099     127.381818       0.000000
    263.326917     356.215170     124.374811       0.000000
    224.753331     368.448069     120.558179       0.000000
    236.803984     383.332919     121.929474       0.000000
    227.277578     411.526549     123.855574       0.000000
    234.792056     403.170674     124.152733       0.000000
    255.215720     418.547726     127.874501       0.000000
    242.761578     429.733275     121.521444       0.000000
    235.448124     442.082894     116.493390       0.000000
    233.570923     460.068947     114.671805       0.000000
    240.171590     449.848488     117.187814       0.000000
    235.138519     472.685222     116.955767       0.000000
    246.411695     478.274174     119.321464       0.000000
    240.254718     490.261279     119.906833       0.000000
    240.000000     500.000000     121.414937       0.000000
    250.000000      10.000000     121.282593       0.000000
    245.697843      22.078985     117.959668       0.000000
    256.145862      28.201459     117.704609       0.000000
    244.258902      31.785925     117.857990       0.000000
    252.510087      73.244697     116.231426       0.000000
    250.963432      55.800611     116.601075       0.000000
    264.186426      77.215468     119.838423       0.000000
    255.827918      94.825891     123.199752       0.000000
    266.530085      95.139732     126.546408       0.000000
    237.576492      97.850534     122.070830       0.000000
    243.266931     109.908819     126.377379       0.000000
    241.940744     135.564104     127.198312       0.000000
    244.440896     126.387581     129.079118       0.000000
    264.100719     134.524987     129.690447       0.000000
    256.575099     150.409350     125.410073       0.000000
    248.327698     159.711503     122.614150       0.000000
    237.322532     164.338698     120.383575       0.000000
    257.793382     163.973708     122.527697       0.000000
    259.650381     180.000801     114.967773       0.000000
    260.279333     193.469747     114.384668       0.000000
    252.195224     202.256388     112.347113       0.000000
    251.606732     217.122841     112.758834       0.000000
    238.154560     232.036186     114.745357       0.000000
    246.743324     236.012026     116.696808       0.000000
    250.042170     257.067737     125.287224       0.000000
    260.346237     265.456807     129.005487       0.000000
    242.647063     284.045842     128.904328       0.000000
    229.526081     282.429772     129.857204       0.000000
    246.034432     296.372262     126.462589       0.000000
    248.027148     305.926956     124.826258       0.000000
    255.277388     300.655680     125.727050       0.000000
    251.687992     314.990707     121.688695       0.000000
    258.272561     333.522150     119.285119       0.000000
    243.380104     340.846689     120.157295       0.000000
    237.466608     353.605797     119.230546       0.000000
    254.196202     359.827015     123.651401       0.000000
    265.342185     372.882059     131.377513       0.000000
    248.627593     374.262417     124.910882       0.000000
    258.009326     389.313824     128.529606       0.000000
    243.623119     403.892586     127.009610       0.000000
    255.704210     409.558327     129.096578       0.000000
    252.714759     426.332518     123.815608       0.000000
    244.005190     441.285048     119.698132       0.000000
    256.499812     445.031859     121.769444       0.000000
    251.724999     453.389957     119.339842       0.000000
    255.386718     467.810792     118.569223       0.000000
    245.390255     468.247718     117.451267       0.000000
    256.535626     478.175791     120.036489       0.000000
    249.971163     489.907466     119.366285       0.000000
    250.000000     500.000000     120.625245       0.000000
    260.000000      10.000000     121.253230       0.000000
    255.066299      17.913622     118.687322       0.000000
    253.818205      37.250249     118.477297       0.000000
    263.146146      47.611896     119.392638       0.000000
    263.728996      57.550313     119.206934       0.000000
    267.118170      68.266828     120.619304       0.000000
    252.972826      82.146309     118.305300       0.000000
    263.924907      86.853670     123.821351       0.000000
    255.565539     108.261632     127.197120       0.000000
    248.989252     102.828854     123.892636       0.000000
    250.793219     118.944206     128.349716       0.000000
    263.576547     113.093329     130.496054       0.000000
    239.163871     118.721721     128.410967       0.000000
    263.152541     125.430625     130.135406       0.000000
    269.397214     156.455605     124.601290       0.000000
    255.090488     172.720441     117.965302       0.000000
    265.243068     168.957148     120.499004       0.000000
    288.081546     178.707557     119.034905       0.000000
    277.680811     183.318733     116.111802       0.000000
    262.051169     202.750701     114.381261       0.000000
    258.411345     226.455527     114.857762       0.000000
    259.048833     211.833447     112.541035       0.000000
    256.164562     236.221450     118.122637       0.000000
    262.174854     242.139561     121.710752       0.000000
    271.939869     255.989665     125.354283       0.000000
    251.582348     244.139919     121.006736       0.000000
    262.002289     254.990256     125.069747       0.000000
    254.514889     290.773936     128.143512       0.000000
    259.366988     282.825602     129.321309       0.000000
    264.524141     296.529453     125.221089       0.000000
    258.256839     308.852635     122.300839       0.000000
    246.840319     322.931664     120.587069       0.000000
    265.560661     318.762002     119.402985       0.000000
    253.461025     341.580052     119.541164       0.000000
    247.866274     349.264675     119.947359       0.000000
    257.095006     349.877330     121.152324       0.000000
    256.889793     379.237504     128.400195       0.000000
    238.812810     373.285806     121.905829       0.000000
    266.319756     381.825655     131.915547       0.000000
    246.202088     383.211188     124.474626       0.000000
    251.298752     396.019121     127.590519       0.000000
    264.924737     419.268785     129.617680       0.000000
    252.864318     435.532569     120.803339       0.000000
    262.701483     436.700704     122.798984       0.000000
    265.540384     453.494175     124.445275       0.000000
    259.064128     459.128446     121.136673       0.000000
    264.672272     467.066238     122.060616       0.000000
    266.922768     477.144336     122.487680       0.000000
    259.594163     489.129029     120.240422       0.000000
    260.000000     500.000000     121.033401       0.000000
    270.000000      10.000000     123.781193       0.000000
    274.203705      18.030924     123.508212       0.000000
    264.624698      18.615035     120.668967       0.000000
    269.794499      28.384751     120.974992       0.000000
    263.886465      37.528881     118.833634       0.000000
    274.829317      47.130232     122.482473       0.000000
    272.241707      59.965808     121.679889       0.000000
    273.492352      74.773608     122.945368       0.000000
    275.282366      94.289445     129.831417       0.000000
    282.467995     102.043046     134.364347       0.000000
    273.469679     125.792980     133.993173       0.000000
    273.096773     136.483861     132.073708       0.000000
    283.222084     128.859848     136.305382       0.000000
    253.689949     129.287935     129.779127       0.000000
    290.227530     135.178761     135.920869       0.000000
    277.161401     163.234257     123.972496       0.000000
    282.447151     170.422470     121.304359       0.000000
    281.136441     201.120751     112.667024       0.000000
    271.163518     202.496503     114.916520       0.000000
    272.946048     192.025715     115.935517       0.000000
    268.019399     211.975905     114.534092       0.000000
    247.839530     226.790452     113.771453       0.000000
    268.262084     221.049229     114.637474       0.000000
    266.848458     231.287300     116.820426       0.000000
    284.234522     258.309290     124.424721       0.000000
    269.226031     266.358238     127.538957       0.000000
    269.720518     247.230505     123.397963       0.000000
    251.617315     277.148513     129.673643       0.000000
    286.947846     296.700574     123.566551       0.000000
    278.151557     298.708017     122.769092       0.000000
    289.767596     311.039951     119.845518       0.000000
    280.070798     307.455750     120.578399       0.000000
    258.180840     324.313284     120.065056       0.000000
    268.139204     347.643101     121.785169       0.000000
    274.771489     355.698680     126.341402       0.000000
    270.542107     364.905914     129.453371       0.000000
    275.250541     374.991771     131.476126       0.000000
    275.946390     383.622425     134.013442       0.000000
    281.744861     395.180337     135.486949       0.000000
    270.134714     392.456204     135.616201       0.000000
    260.412297     397.748486     131.087916       0.000000
    266.520173     410.102599     133.627589       0.000000
    273.573230     419.140305     132.310801       0.000000
    262.970121     427.603795     125.572915       0.000000
    271.494227     432.681835     127.604962       0.000000
    268.867315     445.071494     123.881927       0.000000
    278.061169     461.229517     125.103869       0.000000
    278.041530     480.930708     126.129631       0.000000
    271.523741     487.663533     123.951636       0.000000
    270.000000     500.000000     123.386768       0.000000
    280.000000      10.000000     125.855171       0.000000
    283.556394      18.289011     126.405131       0.000000
    280.316234      26.009606     123.040460       0.000000
    273.934793      36.585959     121.508042       0.000000
    283.782150      51.471038     124.615887       0.000000
    285.646139      60.303169     124.627237       0.000000
    281.200505      69.097424     123.575486       0.000000
    280.655363      79.334876     126.642147       0.000000
    272.735759      84.100980     124.942266       0.000000
    290.077530      92.354698     133.519214       0.000000
    265.543193     104.313217     128.432227       0.000000
    271.287875     116.859772     133.841022       0.000000
    290.123885     150.976484     130.725687       0.000000
    265.308228     145.384972     128.116342       0.000000
    284.991314     142.275635     132.104556       0.000000
    276.342530     149.317793     129.118088       0.000000
    272.420742     175.143917     120.112609       0.000000
    287.386160     163.616087     124.677328       0.000000
    287.235864     212.452493     115.435337       0.000000
    278.120452     210.349870     114.808002       0.000000
    290.370679     225.718379     116.557214       0.000000
    280.666560     220.348674     116.557286       0.000000
    276.494557     228.961325     117.828216       0.000000
    272.431499     237.576178     120.394180       0.000000
    281.690023     246.651723     121.106975       0.000000
    288.682035     267.638504     125.029687       0.000000
    263.012209     274.590819     129.235741       0.000000
    273.564220     277.920632     126.042434       0.000000
    269.430050     288.620936     125.799076       0.000000
    284.473266     286.857481     125.090508       0.000000
    270.192791     307.025417     120.277719       0.000000
    266.245250     328.188751     118.031425       0.000000
    276.669373     328.550516     119.484414       0.000000
    265.323839     339.436861     119.270887       0.000000
    280.916956     345.477505     122.136636       0.000000
    285.582769     365.920990     129.315672       0.000000
    284.642577     375.929288     132.077783       0.000000
    285.395982     385.240550     133.356201       0.000000
    283.109868     404.469300     135.780847       0.000000
    272.461296     401.837006     135.407175       0.000000
    276.012521     410.314407     135.181641       0.000000
    288.263895     425.971521     130.962437       0.000000
    279.235078     427.728539     131.077137       0.000000
    294.806465     435.981830     126.759031       0.000000
    277.622021     440.291550     126.034855       0.000000
    277.883980     451.135843     124.568246       0.000000
    274.694793     471.381256     124.287227       0.000000
    283.842767     470.844335     127.089432       0.000000
    280.941151     489.809638     126.035620       0.000000
    280.000000     500.000000     125.560483       0.000000
    290.000000      10.000000     127.847947       0.000000
    292.511499      18.747412     128.277841       0.000000
    291.394106      30.092665     126.595131       0.000000
    283.093884      39.651368     125.194298       0.000000
    292.818616      40.174840     126.556807       0.000000
    295.209002      49.004234     126.115919       0.000000
    295.440018      60.010658     125.149823       0.000000
    292.280756      82.748982     129.426290       0.000000
    283.141924      87.634225     129.302319       0.000000
    299.013704      90.273612     132.925326       0.000000
    293.409197     101.013040     136.043908       0.000000
    295.654023     114.288140     138.093486       0.000000
    273.688369     105.948848     133.043543       0.000000
    280.131389     116.016624     136.267823       0.000000
    298.558438     151.432566     135.178512       0.000000
    297.188081     161.880755     129.712904       0.000000
    282.932334     155.768023     127.475351       0.000000
    298.084164     183.136122     117.903970       0.000000
    283.958846     192.519384     115.275750       0.000000
    293.152811     201.027706     113.814712       0.000000
    299.064437     209.598236     114.775145       0.000000
    297.403086     231.356502     117.682321       0.000000
    305.555339     235.150655     120.014935       0.000000
    286.834282     236.660128     119.273738       0.000000
    289.903274     251.285759     122.319223       0.000000
    293.946576     260.394888     126.471759       0.000000
    278.915017     269.795613     125.130776       0.000000
    285.977861     277.300291     126.031789       0.000000
    295.415745     293.311854     123.200425       0.000000
    284.388777     318.422279     119.626958       0.000000
    294.872210     321.450568     120.441414       0.000000
    274.934431     319.078107     119.658936       0.000000
    286.813733     328.704203     120.997222       0.000000
    275.678814     337.988885     119.843213       0.000000
    289.388699     337.401444     121.432853       0.000000
    290.277267     347.646724     123.650072       0.000000
    286.396223     357.079941     127.251906       0.000000
    296.760179     366.570040     126.707866       0.000000
    291.233626     398.478977     134.594024       0.000000
    302.939927     395.442238     130.081478       0.000000
    283.207251     415.960751     133.813719       0.000000
    297.418067     424.324116     126.622602       0.000000
    285.366030     434.144746     128.016091       0.000000
    290.966118     446.648183     125.855452       0.000000
    299.802810     444.507790     126.194833       0.000000
    296.161637     455.747326     125.982242       0.000000
    286.742680     455.801222     125.281654       0.000000
    292.882336     479.614816     127.051270       0.000000
    289.812575     489.076386     127.608197       0.000000
    290.000000     500.000000     127.506438       0.000000
    300.000000      10.000000     129.922578       0.000000
    300.995368      31.266588     129.215589       0.000000
    301.795741      40.648894     128.612009       0.000000
    311.952758      40.923911     130.671207       0.000000
    307.152605      61.399803     125.072553       0.000000
    308.307536      71.352966     125.170813       0.000000
    288.996971      74.034832     126.058219       0.000000
    297.926354      72.567647     126.173067       0.000000
    302.559443      98.361391     136.234625       0.000000
    322.056171      94.643983     129.782573       0.000000
    308.625474      91.722091     132.502135       0.000000
    304.305269     111.119482     139.991664       0.000000
    287.507523     109.223136     136.765819       0.000000
    299.193435     130.295273     138.277080       0.000000
    306.477224     156.754218     133.729757       0.000000
    305.520485     166.251221     128.990254       0.000000
    295.475571     170.067310     124.809944       0.000000
    302.800786     174.757842     122.287758       0.000000
    293.304281     190.666379     116.571558       0.000000
    305.708655     203.469922     115.335458       0.000000
    307.897677     216.048703     116.600154       0.000000
    298.345535     218.517550     116.283512       0.000000
    305.344624     225.917020     118.065771       0.000000
    294.864289     243.180636     121.275368       0.000000
    300.276495     253.737550     124.644411       0.000000
    312.929042     266.536611     126.748183       0.000000
    303.049163     267.875276     127.728155       0.000000
    296.837411     274.879201     126.359021       0.000000
    304.185601     295.178279     122.297046       0.000000
    299.007060     303.428700     120.115833       0.000000
    308.849083     303.752922     119.599174       0.000000
    305.051974     323.757305     119.652083       0.000000
    306.400769     335.346011     118.697419       0.000000
    297.678535     332.874774     120.402246       0.000000
    301.822197     345.214518     121.013724       0.000000
    295.920753     357.574774     125.606323       0.000000
    304.990273     364.012831     123.911304       0.000000
    293.618783     375.561676     130.637056       0.000000
    304.232442     384.076170     129.065723       0.000000
    311.254583     389.963168     126.104003       0.000000
    296.235071     407.583869     132.950982       0.000000
    292.721908     416.024806     131.742201       0.000000
    304.320883     432.974243     125.290369       0.000000
    310.649234     444.722426     125.444164       0.000000
    319.524057     451.608616     125.018407       0.000000
    292.565898     465.110734     127.541007       0.000000
    298.678690     472.713719     127.184016       0.000000
    309.415156     489.578380     129.893421       0.000000
    304.262436     479.768014     128.038805       0.000000
    300.000000     500.000000     129.118381       0.000000
    310.000000      10.000000     132.704173       0.000000
    301.691388      22.188124     131.208907       0.000000
    313.718769      31.746683     132.695211       0.000000
    304.980212      49.029508     127.174347       0.000000
    329.380640      65.215669     123.562634       0.000000
    326.376745      55.114975     125.419830       0.000000
    315.225571      78.211379     124.971279       0.000000
    321.233455      71.231208     123.206385       0.000000
    305.038155      80.509975     128.413680       0.000000
    327.634524      88.185628     126.042918       0.000000
    303.256749     120.140871     138.950875       0.000000
    291.167764     124.084474     137.886394       0.000000
    302.413527     141.054678     137.738713       0.000000
    293.866868     143.519629     135.607337       0.000000
    313.869606     149.149809     136.705246       0.000000
    322.875825     156.156913     133.255444       0.000000
    311.890268     175.826706     123.997289       0.000000
    321.978679     178.322230     122.474736       0.000000
    302.051840     194.817683     116.246234       0.000000
    314.712216     195.947047     115.528043       0.000000
    314.174555     207.461502     115.388789       0.000000
    315.169346     221.479926     118.221190       0.000000
    324.078111     223.441170     121.556892       0.000000
    316.400608     231.190137     120.760841       0.000000
    307.367560     259.361916     126.047050       0.000000
    307.679109     276.746100     127.119966       0.000000
    307.675373     287.245427     125.658002       0.000000
    297.691785     283.960773     126.427058       0.000000
    320.457804     283.765538     124.921615       0.000000
    322.734434     294.480628     121.679414       0.000000
    313.626933     294.154659     122.461527       0.000000
    303.545792     311.480133     119.331718       0.000000
    314.876350     321.120466     120.015665       0.000000
    314.105823     330.129382     119.465998       0.000000
    320.632434     352.992760     117.420414       0.000000
    317.833203     338.893457     118.594795       0.000000
    311.692752     346.240344     119.023417       0.000000
    304.080551     374.178715     126.292868       0.000000
    311.590195     380.530268     124.694296       0.000000
    294.194283     387.089326     132.740685       0.000000
    304.598155     406.313963     129.170032       0.000000
    303.625106     415.538088     127.409736       0.000000
    317.509717     418.455868     122.105475       0.000000
    320.499153     472.281175     127.947423       0.000000
    314.476452     462.329832     126.546747       0.000000
    310.484591     454.369044     125.230508       0.000000
    302.304261     463.465191     127.113017       0.000000
    313.720880     479.966473     130.614093       0.000000
    299.132426     490.871150     128.806442       0.000000
    310.000000     500.000000     131.216503       0.000000
    320.000000      10.000000     133.482903       0.000000
    314.806502      19.923636     132.850761       0.000000
    321.173190      26.424716     133.078045       0.000000
    313.267543      52.782444     127.784286       0.000000
    317.962328      62.105392     124.972045       0.000000
    335.928308      72.949573     123.076679       0.000000
    344.004407      68.910941     121.693319       0.000000
    326.238000      79.350944     124.229498       0.000000
    317.690202      86.564241     128.121025       0.000000
    330.571900     107.394088     130.713323       0.000000
    322.156444     104.340212     132.825630       0.000000
    314.708152     110.905318     137.019910       0.000000
    311.184706     125.858531     137.464411       0.000000
    311.726190     136.893732     138.409259       0.000000
    321.464513     132.130629     138.145714       0.000000
    330.009985     173.357967     124.417671       0.000000
    313.770168     163.670023     132.257953       0.000000
    319.691788     187.087451     118.845574       0.000000
    307.024998     183.593022     119.410336       0.000000
    322.539460     202.900885     115.730887       0.000000
    321.325779     213.154251     116.828688       0.000000
    333.032159     221.298048     122.460882       0.000000
    313.461929     240.045299     123.432118       0.000000
    305.826734     246.421978     124.319520       0.000000
    322.554404     255.900449     124.921927       0.000000
    313.506949     252.764157     126.469580       0.000000
    335.285558     261.918954     124.825162       0.000000
    316.636163     275.243555     126.517010       0.000000
    330.331061     286.468672     123.796673       0.000000
    318.040974     302.941261     120.158194       0.000000
    313.315469     311.624296     119.699494       0.000000
    332.011677     328.820326     116.784189       0.000000
    326.553907     342.134375     116.016242       0.000000
    340.830799     330.726351     115.756226       0.000000
    331.424549     350.076215     116.935499       0.000000
    313.508899     359.076171     121.688580       0.000000
    304.557321     354.194910     122.270359       0.000000
    311.606346     370.160063     123.211475       0.000000
    319.189648     394.389508     123.115553       0.000000
    321.609944     404.685811     122.388681       0.000000
    309.656307     421.992948     124.962022       0.000000
    314.857536     431.954046     122.604636       0.000000
    328.496869     445.716387     122.167655       0.000000
    325.965981     426.845586     120.356546       0.000000
    325.206362     459.446162     124.932329       0.000000
    348.110901     447.968110     120.260384       0.000000
    309.671639     471.973090     128.411798       0.000000
    325.638174     482.726910     130.120500       0.000000
    322.648264     491.339784     130.876588       0.000000
    320.000000     500.000000     132.011374       0.000000
    330.000000      10.000000     132.430616       0.000000
    337.088041      18.643641     130.364925       0.000000
    327.744156      20.312349     131.975785       0.000000
    330.676483      30.014280     130.975287       0.000000
    322.087289      36.358403     132.162656       0.000000
    345.867306      55.718754     123.182701       0.000000
    336.423806      51.790151     126.197530       0.000000
    330.789843      98.061945     127.701708       0.000000
    353.441657      98.057665     122.062068       0.000000
    324.421563     113.354504     134.882313       0.000000
    335.885142     115.708619     133.090799       0.000000
    340.338684     100.034591     126.126246       0.000000
    319.830506     121.027683     137.114655       0.000000
    331.542519     131.579804     137.342723       0.000000
    320.760948     142.103055     136.750563       0.000000
    321.079474     170.448654     127.866749       0.000000
    329.214541     164.874669     128.977466       0.000000
    330.021341     182.870124     119.618741       0.000000
    334.914168     192.605186     116.824987       0.000000
    334.531441     202.522988     116.287868       0.000000
    329.796970     210.215667     117.810637       0.000000
    323.640265     237.317405     124.358270       0.000000
    332.591651     242.143641     126.111255       0.000000
    323.555107     246.666521     125.498408       0.000000
    336.492604     252.803555     124.913750       0.000000
    326.505379     264.378248     123.617468       0.000000
    335.518895     274.130117     125.355925       0.000000
    326.188163     274.228341     125.362474       0.000000
    342.009096     283.835277     121.943199       0.000000
    334.912969     295.472086     122.171029       0.000000
    322.923141     331.241734     117.277693       0.000000
    322.137023     313.790353     118.546358       0.000000
    325.539022     322.489161     118.392895       0.000000
    336.363410     342.372362     115.747868       0.000000
