    398.169902     228.810267     126.069314       0.000000
    375.222585     222.704596     129.153267       0.000000
    389.018914     229.643867     128.123639       0.000000
    378.027526     233.148370     129.767571       0.000000
    388.443814     265.780387     118.543915       0.000000
    382.061015     279.173410     116.909886       0.000000
    369.214352     275.281026     120.592501       0.000000
    374.321889     286.620081     116.556395       0.000000
    380.354604     297.274019     115.498503       0.000000
    369.010965     317.554522     114.393304       0.000000
    388.700691     305.695700     114.321862       0.000000
    383.673574     337.767958     115.126195       0.000000
    381.049857     346.807285     116.684522       0.000000
    389.119817     353.513028     120.180584       0.000000
    379.627600     361.028695     117.846378       0.000000
    378.435167     370.679440     118.674195       0.000000
    395.880769     375.419334     127.631222       0.000000
    378.484489     380.794873     120.427957       0.000000
    371.466759     385.824005     115.917307       0.000000
    370.830241     415.528507     116.962165       0.000000
    389.755294     428.082324     122.003306       0.000000
    383.992415     441.940392     123.147144       0.000000
    379.407190     434.084324     121.529353       0.000000
    392.946134     445.496605     125.324852       0.000000
    376.577585     462.580549     123.274156       0.000000
    369.123993     468.143786     123.386673       0.000000
    383.935621     481.448924     125.342936       0.000000
    388.174899     473.237104     124.995633       0.000000
    380.000000     500.000000     124.204827       0.000000
    390.000000      10.000000     123.840225       0.000000
    396.390314      20.233161     123.421319       0.000000
    374.529222      43.101525     122.167786       0.000000
    382.925548      38.189841     122.835438       0.000000
    401.556577      41.958016     120.252072       0.000000
    392.645537      53.410450     120.880752       0.000000
    391.902391      73.683113     116.846750       0.000000
    401.936069      76.623613     116.602420       0.000000
    383.279875      80.312073     116.799687       0.000000
    378.783334      88.357924     117.481728       0.000000
    392.043802     103.383908     118.055593       0.000000
    407.851972     114.386415     121.436398       0.000000
    400.458589     130.006000     122.680045       0.000000
    388.820251     136.115190     120.368753       0.000000
    380.465071     155.864014     124.566482       0.000000
    389.452663     157.004361     125.567842       0.000000
    382.798110     164.780882     125.674317       0.000000
    387.431873     178.704610     125.815652       0.000000
    377.212187     204.662140     125.524408       0.000000
    384.498569     198.735079     126.084680       0.000000
    393.098785     205.426658     127.740568       0.000000
    394.128227     217.500754     128.527626       0.000000
    408.031340     227.801619     123.362063       0.000000
    405.343081     236.598017     122.893014       0.000000
    395.394757     237.352719     125.196309       0.000000
    385.164854     239.178832     128.049372       0.000000
    394.582569     254.953915     120.194524       0.000000
    384.743310     288.980356     114.826244       0.000000
    392.079752     294.868284     114.650980       0.000000
    380.088844     316.799365     113.391462       0.000000
    377.367837     306.757621     114.135515       0.000000
    399.387722     300.618454     112.489247       0.000000
    392.211635     333.936719     115.291542       0.000000
    391.565756     342.781146     117.923865       0.000000
    397.723156     348.544023     122.030897       0.000000
    389.348261     365.483073     123.474064       0.000000
    387.920530     374.568340     123.384313       0.000000
    399.684881     387.311625     128.747831       0.000000
    390.461177     386.057586     124.947529       0.000000
    379.909297     392.590996     119.736308       0.000000
    388.079367     395.861385     123.743623       0.000000
    380.839663     412.651269     120.185399       0.000000
    419.868824     414.615459     131.776210       0.000000
    396.180029     436.894868     124.298756       0.000000
    388.516563     454.556785     125.873938       0.000000
    386.046577     463.454610     125.187296       0.000000
    378.769505     474.001962     123.748532       0.000000
    398.640811     482.233927     126.991346       0.000000
    392.531910     488.888489     125.659129       0.000000
    390.000000     500.000000     124.893422       0.000000
    400.000000      10.000000     124.454824       0.000000
    406.290501      21.749903     124.521890       0.000000
    383.247534      28.138576     123.161595       0.000000
    393.099191      29.594287     122.380289       0.000000
    413.654349      49.078258     121.879126       0.000000
    401.681115      53.000776     120.348578       0.000000
    394.225158      65.081317     118.212499       0.000000
    403.437516      87.887167     117.843598       0.000000
    399.862084     107.799862     119.565823       0.000000
    386.656785      93.175501     117.228026       0.000000
    396.533078      95.117602     116.773029       0.000000
    398.254491     116.442785     122.511165       0.000000
    399.471116     141.934070     123.782584       0.000000
    419.530458     139.094695     126.061797       0.000000
    410.581159     140.608907     124.129153       0.000000
    408.928636     150.499005     126.152237       0.000000
    394.380688     172.788790     127.085456       0.000000
    398.455873     183.575145     128.224610       0.000000
    377.085947     179.860784     123.196632       0.000000
    388.370533     187.999006     126.330472       0.000000
    395.901963     192.947957     127.386819       0.000000
    400.668082     210.313310     127.333218       0.000000
    418.890485     235.986813     123.763424       0.000000
    417.289719     222.869707     125.338443       0.000000
    399.268683     245.261126     122.816932       0.000000
    388.058842     247.595198     124.651339       0.000000
    404.484798     252.879071     119.036533       0.000000
    391.374816     274.540217     116.036428       0.000000
    393.153995     285.557515     115.532716       0.000000
    401.185459     290.990307     113.920184       0.000000
    409.352882     309.457146     114.333226       0.000000
    399.564342     315.727787     113.496183       0.000000
    397.952806     326.684559     115.226331       0.000000
    411.241431     341.681563     122.397585       0.000000
    403.132855     339.394685     119.043724       0.000000
    398.281816     358.565492     126.601437       0.000000
    405.228180     378.060634     130.891432       0.000000
    402.834755     368.184463     129.908621       0.000000
    420.297728     395.672572     132.740013       0.000000
    410.623842     396.656295     131.599212       0.000000
    397.295688     396.393673     127.177978       0.000000
    386.618210     405.184804     122.838046       0.000000
    389.003392     416.050170     123.395311       0.000000
    396.979762     423.079768     124.897257       0.000000
    403.786111     443.282026     126.790265       0.000000
    406.540356     471.037737     128.100974       0.000000
    398.463038     453.001672     126.797627       0.000000
    397.173650     471.743046     125.833939       0.000000
    404.745134     492.228059     127.135844       0.000000
    400.000000     500.000000     125.386260       0.000000
    410.000000      10.000000     125.647256       0.000000
    414.149039      27.896682     123.528896       0.000000
    402.976499      32.587308     121.403914       0.000000
    410.374759      38.211965     122.016964       0.000000
    427.326988      66.185720     120.488389       0.000000
    409.733421      57.331309     120.499807       0.000000
    403.186373      63.415701     118.206449       0.000000
    407.753620      96.090991     118.879896       0.000000
    413.566356      84.779771     118.285051       0.000000
    417.528177      96.330362     121.108917       0.000000
    414.714935     108.077472     121.647743       0.000000
    408.644879     126.293984     123.160740       0.000000
    428.689449     135.924860     128.222642       0.000000
    426.175616     145.432159     128.313186       0.000000
    399.321566     153.873650     125.873625       0.000000
    419.388211     163.618289     129.116903       0.000000
    408.608109     160.838639     128.469228       0.000000
    403.374690     175.387411     130.032588       0.000000
    403.340565     198.849580     127.511455       0.000000
    412.581926     196.906994     127.990404       0.000000
    409.335511     205.863551     127.447214       0.000000
    402.617587     219.380140     125.966934       0.000000
    410.602934     214.767880     125.256432       0.000000
    408.370936     245.347799     122.320163       0.000000
    413.884476     257.337552     118.759325       0.000000
    419.738109     265.073085     118.539671       0.000000
    407.848244     266.963998     115.304591       0.000000
    399.234378     262.638098     117.908515       0.000000
    400.323975     272.235390     115.628537       0.000000
    420.662312     304.000786     115.816514       0.000000
    418.499466     313.946096     116.231143       0.000000
    406.135359     330.944275     117.821108       0.000000
    423.976219     335.983860     124.164970       0.000000
    417.205899     352.913041     127.895966       0.000000
    406.012008     350.379598     125.036333       0.000000
    411.704995     366.717964     131.891778       0.000000
    409.194484     358.220790     128.738769       0.000000
    408.937303     387.766664     131.946712       0.000000
    429.680617     393.705856     132.613808       0.000000
    413.497443     408.159093     132.512043       0.000000
    404.340730     406.228608     130.159569       0.000000
    394.769290     408.676680     126.502907       0.000000
    403.001465     415.195236     129.172947       0.000000
    409.689103     436.630154     128.816051       0.000000
    404.502276     427.818294     128.483862       0.000000
    407.860103     451.756342     128.513982       0.000000
    415.502762     473.344101     128.767752       0.000000
    409.647512     483.093558     127.932150       0.000000
    415.473522     490.653789     127.894722       0.000000
    410.000000     500.000000     126.446659       0.000000
    420.000000      10.000000     125.956630       0.000000
    415.750859      18.627624     125.662945       0.000000
    422.308209      33.371304     124.693643       0.000000
    421.899716      55.987597     121.121696       0.000000
    428.099537      47.047939     124.360184       0.000000
    431.386112      55.756268     122.800606       0.000000
    416.921550      64.195116     120.790234       0.000000
    411.195416      75.381869     118.078217       0.000000
    424.481242      87.675412     119.588499       0.000000
    432.343002      95.204735     121.470420       0.000000
    424.711827     105.639340     122.786497       0.000000
    418.889106     117.101110     123.928350       0.000000
    418.486281     129.898655     125.848461       0.000000
    435.523271     120.241780     128.921524       0.000000
    436.354218     147.803764     130.419464       0.000000
    417.448888     152.466328     128.403530       0.000000
    396.969543     164.174188     126.547596       0.000000
    413.543319     172.115451     129.615536       0.000000
    415.496626     182.413144     129.040614       0.000000
    408.788917     188.514956     128.549598       0.000000
    420.726326     213.804518     125.745845       0.000000
    428.929901     218.613023     126.446459       0.000000
    427.257098     228.199215     125.303342       0.000000
    437.538101     245.176622     126.566610       0.000000
    427.163614     240.208780     123.850984       0.000000
    417.671653     247.563085     122.846869       0.000000
    423.991009     274.111296     118.782062       0.000000
    403.294555     281.268962     114.849587       0.000000
    409.900020     298.441566     113.721276       0.000000
    408.120272     321.962847     116.594196       0.000000
    425.955009     318.923258     120.234991       0.000000
    415.599891     333.437279     121.876399       0.000000
    418.074749     324.288398     119.570003       0.000000
    419.998379     344.909444     124.565967       0.000000
    428.090415     355.594386     129.495365       0.000000
    421.590387     363.787431     132.949136       0.000000
    415.145489     376.573722     132.403022       0.000000
    418.401845     385.544937     133.497288       0.000000
    423.806584     372.833465     133.130089       0.000000
    422.219545     405.677603     131.672849       0.000000
    410.814989     420.059806     130.963347       0.000000
    427.542901     419.466983     130.923418       0.000000
    425.672902     428.492333     129.524149       0.000000
    415.952565     443.535011     130.514591       0.000000
    404.449032     461.239495     128.372837       0.000000
    395.003672     462.170155     125.304974       0.000000
    425.431085     471.551333     128.348903       0.000000
    419.091944     482.388576     126.970661       0.000000
    424.676695     489.824291     127.789359       0.000000
    420.000000     500.000000     126.308524       0.000000
    430.000000      10.000000     126.829856       0.000000
    425.360073      19.764739     127.408331       0.000000
    430.676026      27.127647     126.413017       0.000000
    419.384323      42.369159     123.988252       0.000000
    436.561644      63.377122     121.822289       0.000000
    432.194656      73.800997     120.571472       0.000000
    423.563087      77.621026     119.927167       0.000000
    435.863374      82.855303     119.089813       0.000000
    442.273435      98.805205     122.621767       0.000000
    452.107873      89.757813     120.035183       0.000000
    433.753421     104.801732     122.676471       0.000000
    427.435742     114.300057     125.268202       0.000000
    427.469759     124.199976     128.023823       0.000000
    444.728271     120.058065     126.906859       0.000000
    437.319535     132.664149     130.490857       0.000000
    432.819325     166.259466     128.952608       0.000000
    423.847662     171.455779     129.949393       0.000000
    432.132888     175.413121     129.679670       0.000000
    425.432860     181.391069     128.725641       0.000000
    419.737277     191.155609     127.404958       0.000000
    420.807254     201.333244     125.796130       0.000000
    431.136285     206.912466     125.576501       0.000000
    439.341351     225.971894     126.826607       0.000000
    435.576594     234.456903     125.389341       0.000000
    436.725092     254.084750     128.064394       0.000000
    429.472880     249.563639     125.067092       0.000000
    426.144882     287.830072     118.159855       0.000000
    410.882171     276.039707     115.021673       0.000000
    410.681136     286.429866     114.687413       0.000000
    418.207922     293.982846     115.347059       0.000000
    428.005157     297.162884     117.978453       0.000000
    440.264823     321.455780     125.056282       0.000000
    432.820660     337.609714     125.388026       0.000000
    428.374932     327.455608     122.912628       0.000000
    430.597284     346.423388     126.213874       0.000000
    440.121426     344.756823     125.988365       0.000000
    434.092364     371.311484     132.814739       0.000000
    442.957309     389.152409     130.901603       0.000000
    428.111011     383.800953     133.476147       0.000000
    432.313677     402.928469     131.581761       0.000000
    443.953704     426.048467     127.293976       0.000000
    434.884093     427.244605     128.546848       0.000000
    415.354042     427.904248     131.039792       0.000000
    423.147339     437.706933     129.450560       0.000000
    416.715420     455.515432     130.004824       0.000000
    413.025710     464.484002     128.461134       0.000000
    425.100116     462.525280     130.141422       0.000000
    434.731438     467.970436     126.601269       0.000000
    428.182704     480.331427     127.241605       0.000000
    430.000000     500.000000     127.246134       0.000000
    440.000000      10.000000     127.280546       0.000000
    434.178224      17.975270     127.611656       0.000000
    444.066543      21.086543     127.244204       0.000000
    431.150024      36.745781     125.959630       0.000000
    446.693096      47.441540     124.252354       0.000000
    449.928000      63.405120     122.143212       0.000000
    441.587951      70.970223     121.346295       0.000000
    447.059491      79.602334     120.810429       0.000000
    458.266056      81.263084     119.365962       0.000000
    441.983332      89.876181     120.500450       0.000000
    462.077258     115.238506     125.765115       0.000000
    449.092391     109.715654     125.407937       0.000000
    439.326122     111.193473     126.021174       0.000000
    450.223098     158.418445     130.018845       0.000000
    445.103414     150.213275     131.725061       0.000000
    451.410297     177.529884     129.000684       0.000000
    428.334116     157.716011     129.920515       0.000000
    444.209635     185.065701     128.184941       0.000000
    434.120049     189.216866     128.193421       0.000000
    440.332315     207.735805     126.694752       0.000000
    437.812322     217.008323     126.105160       0.000000
    447.239789     214.038222     126.260206       0.000000
    448.948689     225.603777     126.329481       0.000000
    445.452033     254.936784     131.669396       0.000000
    430.886007     264.813800     125.848400       0.000000
    423.774584     256.952128     122.006920       0.000000
    432.136109     282.815866     123.181433       0.000000
    438.116733     290.541977     124.543269       0.000000
    418.458027     281.530276     116.310702       0.000000
    436.107962     302.636674     122.990743       0.000000
    430.929204     309.826958     121.333679       0.000000
    440.215575     312.155063     124.546159       0.000000
    446.476577     336.874852     125.492429       0.000000
    449.794959     348.279251     126.672025       0.000000
    447.685105     359.853561     128.231189       0.000000
    464.422293     360.466088     125.665027       0.000000
    439.566311     353.989060     128.545786       0.000000
    449.792132     397.438360     128.101126       0.000000
    440.353681     398.381915     130.117308       0.000000
    459.901721     388.957693     127.398214       0.000000
    435.436961     413.731482     131.040969       0.000000
    447.501996     415.080011     126.385281       0.000000
    452.324555     433.004615     125.627047       0.000000
    424.455932     449.703193     129.651868       0.000000
    433.579970     454.976935     128.934044       0.000000
    445.893581     454.414909     126.156282       0.000000
    444.900628     463.803878     125.094549       0.000000
    446.469814     473.424925     125.114835       0.000000
    436.476704     490.127911     129.264495       0.000000
    440.000000     500.000000     127.733317       0.000000
    450.000000      10.000000     128.228172       0.000000
    454.816258      21.248457     126.966437       0.000000
    452.826484      31.675750     127.571348       0.000000
    441.513211      29.849717     127.375447       0.000000
    438.001432      49.385552     122.418109       0.000000
    453.451906      53.943672     122.173908       0.000000
    453.289300      72.522213     121.335865       0.000000
    443.986351      56.569290     122.075921       0.000000
    460.321773      94.623674     119.272447       0.000000
    451.896092      99.953504     122.246471       0.000000
    464.340070     123.398614     129.350489       0.000000
    453.794666     118.337296     127.482669       0.000000
    447.343639     128.212794     129.808250       0.000000
    446.299414     139.548439     131.948785       0.000000
    459.560395     155.440643     130.558736       0.000000
    441.770565     162.249939     129.715110       0.000000
    442.363253     172.589924     129.909962       0.000000
    454.535796     188.530305     128.654405       0.000000
    429.434767     197.445132     127.022814       0.000000
    448.744978     196.657840     127.454366       0.000000
    457.097899     219.117631     125.716387       0.000000
    465.530422     216.863220     128.041277       0.000000
    454.812152     233.940375     129.196050       0.000000
    450.203131     244.017803     130.084542       0.000000
    444.404135     235.167715     127.387989       0.000000
    443.950008     271.060048     130.466053       0.000000
    434.437070     274.315985     126.233321       0.000000
    449.295495     290.538444     129.324396       0.000000
    457.692500     285.832431     131.803795       0.000000
    454.282221     300.128839     128.819707       0.000000
    444.058182     298.176533     125.896102       0.000000
    449.152899     309.705847     126.837669       0.000000
    438.819508     330.583293     125.655857       0.000000
    451.435981     328.931002     126.415136       0.000000
    457.977877     337.026337     125.439941       0.000000
    474.405105     361.733014     124.814238       0.000000
    466.512515     371.440238     126.369884       0.000000
    435.217624     362.324474     131.805633       0.000000
    437.729475     381.810546     132.194448       0.000000
    446.882320     377.401188     130.976503       0.000000
    442.902500     407.479601     128.886004       0.000000
    452.906633     407.810849     126.366836       0.000000
    443.118190     445.143205     127.055259       0.000000
    443.763980     435.807882     127.469845       0.000000
    432.257825     441.716081     128.480505       0.000000
    456.119913     456.328562     124.039679       0.000000
    454.031489     465.748911     123.898049       0.000000
    462.504887     468.821977     122.525491       0.000000
    438.172279     481.271884     127.086068       0.000000
    450.000000     500.000000     127.969020       0.000000
    460.000000      10.000000     126.304203       0.000000
    464.524620      18.540101     125.368497       0.000000
    466.372908      36.860044     124.241293       0.000000
    443.640571      38.596108     126.592550       0.000000
    456.934452      40.268611     125.425685       0.000000
    470.299619      45.012626     122.171392       0.000000
    468.147015      54.799039     119.878615       0.000000
    466.684511      73.765586     117.943370       0.000000
    466.770519      85.756549     118.813793       0.000000
    460.731316     103.852696     121.543333       0.000000
    475.355567     117.774891     129.934977       0.000000
    460.072039     135.876584     132.376417       0.000000
    471.076059     129.223071     131.148425       0.000000
    456.115354     144.612945     132.900510       0.000000
    471.631778     159.433181     128.082772       0.000000
    470.523540     179.596915     126.712444       0.000000
    460.113418     174.361021     128.160357       0.000000
    464.215904     189.045587     127.233143       0.000000
    439.244483     198.785248     127.575393       0.000000
    452.082526     206.353283     126.114494       0.000000
    461.432124     208.774814     127.253542       0.000000
    463.578568     229.014776     128.109209       0.000000
    457.140042     249.672682     132.933350       0.000000
    439.602716     262.622927     129.724218       0.000000
    450.449787     263.258891     133.223073       0.000000
    468.962693     258.775073     134.812141       0.000000
    443.797663     281.120631     129.405568       0.000000
    457.768587     269.444977     134.568188       0.000000
    451.783307     276.994477     132.848697       0.000000
    472.143773     296.306722     130.967151       0.000000
    462.551001     297.444481     131.349498       0.000000
    450.635988     319.521057     127.149480       0.000000
    458.322420     308.276289     129.279759       0.000000
    460.223340     322.847953     128.524254       0.000000
    466.411416     328.885280     125.324154       0.000000
    456.506430     355.851653     126.846916       0.000000
    464.487001     348.914028     124.379750       0.000000
    443.984400     368.286234     131.111439       0.000000
    458.459058     377.565502     128.100302       0.000000
    469.489121     393.091872     124.128158       0.000000
    452.084685     385.009185     130.149945       0.000000
    459.739235     399.158898     126.806595       0.000000
    452.353757     423.306050     125.197767       0.000000
    453.522279     442.483686     125.261715       0.000000
    461.290069     447.871484     123.585669       0.000000
    474.002519     454.481074     121.426567       0.000000
    465.548148     458.521323     123.027600       0.000000
    454.625100     479.313438     125.172042       0.000000
    447.635500     488.190644     128.740056       0.000000
    460.000000     500.000000     125.398051       0.000000
    470.000000      10.000000     122.392268       0.000000
    476.332655      18.290676     121.829098       0.000000
    460.991010      27.956069     126.496574       0.000000
    461.131747      48.831521     123.032170       0.000000
    475.325954      35.253361     123.902926       0.000000
    471.323760      63.056435     117.110499       0.000000
    480.224916      74.413392     117.512770       0.000000
    460.506400      64.490841     118.653059       0.000000
    474.758120      81.522674     118.294958       0.000000
    468.697284      99.600571     120.718228       0.000000
    468.125340     108.782735     123.607352       0.000000
    456.434088     127.771951     130.042606       0.000000
    468.125259     141.254435     132.269658       0.000000
    471.210268     170.385306     127.678361       0.000000
    450.769916     167.466327     130.142841       0.000000
    462.415963     164.370379     128.983757       0.000000
    474.312015     188.341910     127.222121       0.000000
    470.007490     196.838281     127.566087       0.000000
    459.329282     198.626192     127.327852       0.000000
    472.607917     205.518747     128.624185       0.000000
    476.954502     214.068265     129.144038       0.000000
    472.857150     222.227127     128.045865       0.000000
    462.258729     241.904782     132.270351       0.000000
    473.733032     242.538431     132.154467       0.000000
    458.775201     259.147757     134.108598       0.000000
    466.273307     250.020031     133.488846       0.000000
    474.232803     274.502625     133.360308       0.000000
    471.216930     285.757312     130.363322       0.000000
    464.834290     277.003826     133.405477       0.000000
    472.742713     305.804362     129.593238       0.000000
    482.359913     302.864562     129.360658       0.000000
    465.937085     314.441058     129.388621       0.000000
    472.404203     321.286058     127.415652       0.000000
    468.590779     338.510389     122.941878       0.000000
    473.404988     351.957467     124.133600       0.000000
    486.667092     375.867378     122.682461       0.000000
    454.551042     368.550656     127.639485       0.000000
    475.466904     373.834472     123.359755       0.000000
    470.398300     383.001403     123.758933       0.000000
    462.240539     407.888452     125.364701       0.000000
    470.264819     411.415609     123.275909       0.000000
    461.290137     418.897320     123.720228       0.000000
    470.819760     420.138816     120.299406       0.000000
    462.203407     438.118579     122.350208       0.000000
    460.519259     428.809220     121.845031       0.000000
    469.790630     442.833609     119.798287       0.000000
    471.484765     468.252147     121.679787       0.000000
    458.914411     489.634502     125.457802       0.000000
    469.673781     490.953835     120.877162       0.000000
    470.000000     500.000000     121.342594       0.000000
    480.000000      10.000000     119.959524       0.000000
    485.806274      18.939622     119.737948       0.000000
    484.052180      29.800950     121.977412       0.000000
    471.240489      26.970905     124.861461       0.000000
    479.136617      46.936676     119.834661       0.000000
    477.754236      55.624600     117.480099       0.000000
    482.159257      64.858073     116.585047       0.000000
    482.762485      86.282203     118.939051       0.000000
    474.218912      91.381540     120.593982       0.000000
    478.441516     100.392821     122.469887       0.000000
    478.340032     109.459865     125.763506       0.000000
    487.098907     115.602970     126.233959       0.000000
    476.965615     139.312630     131.213668       0.000000
    477.018459     148.285780     129.325484       0.000000
    467.078501     150.350148     130.514675       0.000000
    480.724676     158.845911     126.966869       0.000000
    486.620774     170.339196     129.147380       0.000000
    479.872981     176.011819     126.998639       0.000000
    482.995758     184.614772     127.534718       0.000000
    479.377908     196.560035     127.831123       0.000000
    481.988426     205.498874     128.542788       0.000000
    480.820692     226.534531     130.373533       0.000000
    483.107534     236.000717     131.704031       0.000000
    483.290177     246.916173     132.430693       0.000000
    475.414714     251.738886     133.205720       0.000000
    479.508054     261.382067     134.428891       0.000000
    468.457497     267.966770     136.444342       0.000000
    483.105181     270.664705     133.432751       0.000000
    489.507595     286.268581     130.061534       0.000000
    481.919850     280.139349     131.139408       0.000000
    478.063433     313.267219     127.953296       0.000000
    482.055562     323.391788     125.657363       0.000000
    477.222880     333.285178     123.041382       0.000000
    477.639224     343.400983     122.725523       0.000000
    483.486802     350.310785     122.002953       0.000000
    483.880926     360.866617     123.914195       0.000000
    491.753585     365.953048     124.155597       0.000000
    479.705273     386.447382     123.177566       0.000000
    480.392892     401.673450     120.968348       0.000000
    470.824562     402.393528     124.308130       0.000000
    478.803885     414.559573     121.340863       0.000000
    478.569500     425.416708     118.774588       0.000000
    468.900807     431.452460     119.496704       0.000000
    476.808449     436.174864     118.282827       0.000000
    481.604123     446.178922     117.771069       0.000000
    482.474050     455.434946     118.458136       0.000000
    476.365877     476.223696     119.387113       0.000000
    467.442745     477.972914     121.584768       0.000000
    476.921430     486.015907     118.732632       0.000000
    480.000000     500.000000     119.052316       0.000000
    490.000000      10.000000     117.974086       0.000000
    492.507762      24.960483     119.397634       0.000000
    492.092928      34.392086     120.159008       0.000000
    484.064228      38.879901     122.494695       0.000000
    492.351633      45.166513     118.094679       0.000000
    486.039763      51.628095     116.300777       0.000000
    490.863335      62.198759     114.614468       0.000000
    490.130715      73.610565     117.659188       0.000000
    492.118788      85.270015     117.942941       0.000000
    490.334173      94.372307     120.123003       0.000000
    491.229372     104.757440     122.925475       0.000000
    491.044129     124.017954     127.496278       0.000000
    480.603031     126.960197     130.647548       0.000000
    489.435419     133.524388     130.115512       0.000000
    489.721669     147.299957     130.145570       0.000000
    490.375913     159.750870     128.623487       0.000000
    490.403519     178.908171     129.134535       0.000000
    491.186488     187.930698     129.921439       0.000000
    490.531811     201.232616     129.877215       0.000000
    490.903028     211.445464     130.684027       0.000000
    485.072274     218.384064     130.903956       0.000000
    490.324876     226.109483     131.756958       0.000000
    471.623015     233.539295     130.000766       0.000000
    492.261005     235.084136     132.423132       0.000000
    492.160448     244.950003     132.464235       0.000000
    490.016358     255.624270     130.587648       0.000000
    491.644332     264.951979     130.976752       0.000000
    490.272790     276.458790     131.130001       0.000000
    491.867865     295.812504     128.759506       0.000000
    481.123894     291.170777     128.956502       0.000000
    491.057933     305.513792     128.239622       0.000000
    486.934341     315.121382     127.046030       0.000000
    492.303957     324.814106     126.222837       0.000000
    488.290360     333.023613     125.849343       0.000000
    491.692903     345.566407     122.141968       0.000000
    491.833966     356.271374     123.092809       0.000000
    491.644030     383.675057     122.987929       0.000000
    486.954406     391.661683     121.129065       0.000000
    490.595543     400.926873     119.829316       0.000000
    490.097927     410.841217     119.828064       0.000000
    488.357136     420.122137     119.609269       0.000000
    489.788204     430.035709     119.086104       0.000000
    489.957122     439.822141     117.483458       0.000000
    490.982546     451.474075     117.498808       0.000000
    491.029762     460.897292     116.922526       0.000000
    482.487998     465.679111     118.775217       0.000000
    491.276101     473.340389     115.988547       0.000000
    487.877062     481.562075     117.703393       0.000000
    490.555074     491.005810     117.920761       0.000000
    490.000000     500.000000     117.725590       0.000000
    500.000000      10.000000     118.157839       0.000000
    500.000000      20.000000     118.177156       0.000000
    500.000000      30.000000     118.336585       0.000000
    500.000000      40.000000     117.985963       0.000000
    500.000000      50.000000     116.543759       0.000000
    500.000000      60.000000     114.542638       0.000000
    500.000000      70.000000     115.319049       0.000000
    500.000000      80.000000     116.282124       0.000000
    500.000000      90.000000     118.311060       0.000000
    500.000000     100.000000     119.904219       0.000000
    500.000000     110.000000     123.793058       0.000000
    500.000000     120.000000     126.170711       0.000000
    500.000000     130.000000     127.010159       0.000000
    500.000000     140.000000     129.316691       0.000000
    500.000000     150.000000     130.144714       0.000000
    500.000000     160.000000     130.363486       0.000000
    500.000000     170.000000     131.058776       0.000000
    500.000000     180.000000     130.913221       0.000000
    500.000000     190.000000     131.373268       0.000000
    500.000000     200.000000     132.149310       0.000000
    500.000000     210.000000     133.203327       0.000000
    500.000000     220.000000     133.842185       0.000000
    500.000000     230.000000     133.395689       0.000000
    500.000000     240.000000     132.642151       0.000000
    500.000000     250.000000     131.624218       0.000000
    500.000000     260.000000     130.405558       0.000000
    500.000000     270.000000     130.560138       0.000000
    500.000000     280.000000     130.490048       0.000000
    500.000000     290.000000     128.946191       0.000000
    500.000000     300.000000     127.683089       0.000000
    500.000000     310.000000     126.680764       0.000000
    500.000000     320.000000     126.485275       0.000000
    500.000000     330.000000     126.462221       0.000000
    500.000000     340.000000     124.359611       0.000000
    500.000000     350.000000     123.416992       0.000000
    500.000000     360.000000     125.102874       0.000000
    500.000000     370.000000     124.644468       0.000000
    500.000000     380.000000     123.413842       0.000000
    500.000000     390.000000     122.011057       0.000000
    500.000000     400.000000     120.789679       0.000000
    500.000000     410.000000     119.957808       0.000000
    500.000000     420.000000     120.070736       0.000000
    500.000000     430.000000     120.121199       0.000000
    500.000000     440.000000     118.668917       0.000000
    500.000000     450.000000     118.348451       0.000000
    500.000000     460.000000     118.450724       0.000000
    500.000000     470.000000     118.466617       0.000000
    500.000000     480.000000     117.904948       0.000000
    500.000000     490.000000     118.843359       0.000000
    500.000000     500.000000     118.199275       0.000000
      0.000000      10.000000     118.157839       0.000000
      0.000000       0.000000     118.199275       0.000000
     10.000000       0.000000     118.722258       0.000000
      0.000000      20.000000     118.177156       0.000000
      0.000000      30.000000     118.336585       0.000000
      0.000000      40.000000     117.985963       0.000000
      0.000000      50.000000     116.543759       0.000000
      0.000000      60.000000     114.542638       0.000000
      0.000000      70.000000     115.319049       0.000000
      0.000000      80.000000     116.282124       0.000000
      0.000000      90.000000     118.311060       0.000000
      0.000000     100.000000     119.904219       0.000000
      0.000000     110.000000     123.793058       0.000000
      0.000000     120.000000     126.170711       0.000000
      0.000000     130.000000     127.010159       0.000000
      0.000000     140.000000     129.316691       0.000000
      0.000000     150.000000     130.144714       0.000000
      0.000000     160.000000     130.363486       0.000000
      0.000000     170.000000     131.058776       0.000000
      0.000000     180.000000     130.913221       0.000000
      0.000000     190.000000     131.373268       0.000000
      0.000000     200.000000     132.149310       0.000000
      0.000000     210.000000     133.203327       0.000000
      0.000000     220.000000     133.842185       0.000000
      0.000000     230.000000     133.395689       0.000000
      0.000000     240.000000     132.642151       0.000000
      0.000000     250.000000     131.624218       0.000000
      0.000000     260.000000     130.405558       0.000000
      0.000000     270.000000     130.560138       0.000000
      0.000000     280.000000     130.490048       0.000000
      0.000000     290.000000     128.946191       0.000000
      0.000000     300.000000     127.683089       0.000000
      0.000000     310.000000     126.680764       0.000000
      0.000000     320.000000     126.485275       0.000000
      0.000000     330.000000     126.462221       0.000000
      0.000000     340.000000     124.359611       0.000000
      0.000000     350.000000     123.416992       0.000000
      0.000000     360.000000     125.102874       0.000000
      0.000000     370.000000     124.644468       0.000000
      0.000000     380.000000     123.413842       0.000000
      0.000000     390.000000     122.011057       0.000000
      0.000000     400.000000     120.789679       0.000000
      0.000000     410.000000     119.957808       0.000000
      0.000000     420.000000     120.070736       0.000000
      0.000000     430.000000     120.121199       0.000000
      0.000000     440.000000     118.668917       0.000000
      0.000000     450.000000     118.348451       0.000000
      0.000000     460.000000     118.450724       0.000000
      0.000000     470.000000     118.466617       0.000000
      0.000000     480.000000     117.904948       0.000000
      0.000000     490.000000     118.843359       0.000000
     20.000000     510.000000     118.615232       0.000000
     10.000000     510.000000     117.880235       0.000000
      0.000000     500.000000     118.199275       0.000000
     20.000000       0.000000     120.265277       0.000000
     30.000000     510.000000     118.580720       0.000000
     30.000000       0.000000     120.897544       0.000000
     40.000000     510.000000     118.666579       0.000000
     40.000000       0.000000     120.937974       0.000000
     50.000000     510.000000     119.315086       0.000000
     50.000000       0.000000     122.375421       0.000000
     60.000000     510.000000     119.376516       0.000000
     60.000000       0.000000     122.895345       0.000000
     70.000000     510.000000     121.527651       0.000000
     70.000000       0.000000     123.945118       0.000000
     80.000000     510.000000     123.321522       0.000000
     80.000000       0.000000     125.176674       0.000000
     90.000000     510.000000     123.674071       0.000000
     90.000000       0.000000     124.808825       0.000000
    100.000000     510.000000     124.505804       0.000000
    100.000000       0.000000     124.859845       0.000000
    110.000000     510.000000     124.905325       0.000000
    110.000000       0.000000     125.299612       0.000000
    120.000000     510.000000     124.544774       0.000000
    120.000000       0.000000     124.539040       0.000000
    130.000000     510.000000     125.105402       0.000000
    130.000000       0.000000     124.658114       0.000000
    140.000000     510.000000     125.049351       0.000000
    140.000000       0.000000     123.751877       0.000000
    150.000000     510.000000     124.998664       0.000000
    150.000000       0.000000     123.817545       0.000000
    160.000000     510.000000     126.160632       0.000000
    160.000000       0.000000     124.679389       0.000000
    170.000000     510.000000     125.988231       0.000000
    170.000000       0.000000     124.907513       0.000000
    180.000000     510.000000     126.270600       0.000000
    180.000000       0.000000     126.158935       0.000000
    190.000000     510.000000     126.453692       0.000000
    190.000000       0.000000     126.338909       0.000000
    200.000000     510.000000     125.069545       0.000000
    200.000000       0.000000     124.985841       0.000000
    210.000000     510.000000     124.235542       0.000000
    210.000000       0.000000     123.831586       0.000000
    220.000000     510.000000     123.726449       0.000000
    220.000000       0.000000     123.184302       0.000000
    230.000000     510.000000     122.921321       0.000000
    230.000000       0.000000     122.234754       0.000000
    240.000000     510.000000     121.231434       0.000000
    240.000000       0.000000     120.923453       0.000000
    250.000000     510.000000     119.612834       0.000000
    250.000000       0.000000     120.642070       0.000000
    260.000000     510.000000     119.610187       0.000000
    260.000000       0.000000     121.554554       0.000000
    270.000000     510.000000     123.288439       0.000000
    270.000000       0.000000     123.932972       0.000000
    280.000000     510.000000     126.380465       0.000000
    280.000000       0.000000     125.394807       0.000000
    290.000000     510.000000     127.960019       0.000000
    290.000000       0.000000     127.876407       0.000000
    300.000000     510.000000     129.669171       0.000000
    300.000000       0.000000     129.563662       0.000000
    310.000000     510.000000     131.802141       0.000000
    310.000000       0.000000     131.593021       0.000000
    320.000000     510.000000     133.495076       0.000000
    320.000000       0.000000     133.000714       0.000000
    330.000000     510.000000     133.689572       0.000000
    330.000000       0.000000     132.237835       0.000000
    340.000000     510.000000     132.454062       0.000000
    340.000000       0.000000     131.596779       0.000000
    350.000000     510.000000     131.117125       0.000000
    350.000000       0.000000     131.353855       0.000000
    360.000000     510.000000     128.432954       0.000000
    360.000000       0.000000     128.562976       0.000000
    370.000000     510.000000     126.497249       0.000000
    370.000000       0.000000     125.238253       0.000000
    380.000000     510.000000     124.527908       0.000000
    380.000000       0.000000     124.204827       0.000000
    390.000000     510.000000     123.840225       0.000000
    390.000000       0.000000     124.893422       0.000000
    400.000000     510.000000     124.454824       0.000000
    400.000000       0.000000     125.386260       0.000000
    410.000000     510.000000     125.647256       0.000000
    410.000000       0.000000     126.446659       0.000000
    420.000000     510.000000     125.956630       0.000000
    420.000000       0.000000     126.308524       0.000000
    430.000000     510.000000     126.829856       0.000000
    430.000000       0.000000     127.246134       0.000000
    440.000000     510.000000     127.280546       0.000000
    440.000000       0.000000     127.733317       0.000000
    450.000000     510.000000     128.228172       0.000000
    450.000000       0.000000     127.969020       0.000000
    460.000000     510.000000     126.304203       0.000000
    460.000000       0.000000     125.398051       0.000000
    470.000000     510.000000     122.392268       0.000000
    470.000000       0.000000     121.342594       0.000000
    480.000000     510.000000     119.959524       0.000000
    480.000000       0.000000     119.052316       0.000000
    490.000000     510.000000     117.974086       0.000000
    490.000000       0.000000     117.725590       0.000000
    500.000000     510.000000     118.157839       0.000000
    510.000000      10.000000     117.880235       0.000000
    510.000000      20.000000     117.421439       0.000000
    500.000000       0.000000     118.199275       0.000000
    510.000000      30.000000     116.622049       0.000000
    510.000000      40.000000     115.919284       0.000000
    510.000000      50.000000     115.141163       0.000000
    510.000000      60.000000     113.888520       0.000000
    510.000000      70.000000     113.632885       0.000000
    510.000000      80.000000     114.855136       0.000000
    510.000000      90.000000     116.271937       0.000000
    510.000000     100.000000     117.563425       0.000000
    510.000000     110.000000     121.148913       0.000000
    510.000000     120.000000     124.274911       0.000000
    510.000000     130.000000     124.850863       0.000000
    510.000000     140.000000     126.683257       0.000000
    510.000000     150.000000     128.727863       0.000000
    510.000000     160.000000     130.369739       0.000000
    510.000000     170.000000     131.840283       0.000000
    510.000000     180.000000     132.186633       0.000000
    510.000000     190.000000     133.018286       0.000000
    510.000000     200.000000     133.667932       0.000000
