    357.966930      30.163998     126.396467       0.000000
    364.854412      44.675788     123.596895       0.000000
    375.623742      63.155850     121.214278       0.000000
    361.474818      77.530706     122.672699       0.000000
    378.141978      74.096255     120.335464       0.000000
    394.973410      84.166488     117.165858       0.000000
    368.311995      94.941652     121.915862       0.000000
    351.474644     106.193763     123.067323       0.000000
    381.118311     127.081446     122.510628       0.000000
    364.342832     118.991219     123.391281       0.000000
    366.224012     128.302243     123.740870       0.000000
    391.317793     129.786589     122.263455       0.000000
    350.106206     139.617524     126.303710       0.000000
    366.544697     138.022076     124.466932       0.000000
    371.972906     146.663164     122.896629       0.000000
    365.711316     173.407101     123.948945       0.000000
    368.759319     183.954281     122.478846       0.000000
    373.257209     213.262722     128.032472       0.000000
    359.986365     214.748440     122.260814       0.000000
    367.383473     221.567439     126.160352       0.000000
    360.967625     232.494723     127.062879       0.000000
    369.988572     230.503042     127.487699       0.000000
    379.054995     251.762665     125.237465       0.000000
    374.682389     260.834561     122.523994       0.000000
    386.514109     258.846792     120.538867       0.000000
    357.734880     275.683276     120.299557       0.000000
    371.355847     296.936966     116.862383       0.000000
    352.957310     294.348402     118.124400       0.000000
    371.316957     309.085431     116.670521       0.000000
    387.410561     321.324806     115.804873       0.000000
    360.298446     325.036867     116.877100       0.000000
    384.946845     329.957559     117.396650       0.000000
    375.340253     329.329485     116.643702       0.000000
    372.724963     353.323295     113.972738       0.000000
    366.994102     362.788047     114.064316       0.000000
    370.096149     372.527296     116.771376       0.000000
    358.284645     390.658874     115.948634       0.000000
    377.413601     402.012544     117.812496       0.000000
    380.574375     422.241952     119.882895       0.000000
    370.086734     424.927686     115.296693       0.000000
    361.044848     421.541031     115.308324       0.000000
    373.701218     446.975694     123.119602       0.000000
    378.922387     454.380918     125.220974       0.000000
    359.167381     463.035719     123.927070       0.000000
    369.196944     456.734923     123.805930       0.000000
    368.237480     475.032872     123.808766       0.000000
    382.207574     491.121168     124.341980       0.000000
    370.000000     500.000000     126.767197       0.000000
    380.000000      10.000000     124.758834       0.000000
    384.522369      18.822313     122.588511       0.000000
    373.756041      31.201894     124.126209       0.000000
    382.766772      47.121914     120.637315       0.000000
    393.951871      38.816661     122.157899       0.000000
    384.260238      56.417783     120.377261       0.000000
    368.520836      71.927985     122.217016       0.000000
    384.720890      65.442757     118.730859       0.000000
    380.593372      98.727394     117.925295       0.000000
    381.045254     110.091437     119.402071       0.000000
    392.123235     111.602408     119.469228       0.000000
    384.906941     117.986615     121.583078       0.000000
    382.437815     146.256658     122.100517       0.000000
    377.670280     136.559754     122.783916       0.000000
    372.498239     161.574610     126.095079       0.000000
    390.781145     149.150524     124.748166       0.000000
    363.004187     164.761472     124.780260       0.000000
    375.813033     171.813693     126.693480       0.000000
    378.234465     190.892983     124.546162       0.000000
    384.066422     210.046649     129.696965       0.000000
    384.940219     219.226023     128.458794       0.000000
    397.033628     225.939541     127.481402       0.000000
    376.343097     222.816598     127.047772       0.000000
    388.298411     228.886440     128.329253       0.000000
    379.377838     232.384003     127.438775       0.000000
    386.319852     267.571371     117.724046       0.000000
    379.992409     280.814909     115.362460       0.000000
    366.866918     275.546056     118.661538       0.000000
    372.563215     286.941565     117.183337       0.000000
    380.970943     296.058875     114.001761       0.000000
    371.399665     319.721154     116.345733       0.000000
    390.815510     306.883527     113.615979       0.000000
    382.615728     338.986669     116.223284       0.000000
    381.964785     347.986692     115.141621       0.000000
    387.048002     355.276118     117.818124       0.000000
    379.932663     361.240405     117.587277       0.000000
    378.858940     370.018609     119.354496       0.000000
    393.934411     379.305688     126.304008       0.000000
    377.860670     379.065857     120.568447       0.000000
    372.053275     386.024202     117.760473       0.000000
    370.126203     415.905199     115.147321       0.000000
    390.416646     430.824763     120.895671       0.000000
    381.876007     440.204481     122.363519       0.000000
    379.586922     431.877477     119.616179       0.000000
    391.258219     444.944130     124.636653       0.000000
    376.883214     463.677849     123.680662       0.000000
    367.769782     465.946240     123.498757       0.000000
    381.639245     481.782906     124.588015       0.000000
    388.342653     475.569986     123.681523       0.000000
    380.000000     500.000000     124.927607       0.000000
    390.000000      10.000000     123.306856       0.000000
    394.186501      19.431626     122.492999       0.000000
    374.154934      40.794431     121.770843       0.000000
    384.991842      36.695116     121.475341       0.000000
    403.378822      44.321955     122.022553       0.000000
    391.090769      50.598517     119.562062       0.000000
    391.359161      73.673857     119.393396       0.000000
    400.408866      75.848430     118.498212       0.000000
    384.913092      80.318448     118.092658       0.000000
    377.414813      87.650947     118.441422       0.000000
    389.183300     102.191515     118.122400       0.000000
    408.260851     114.072230     120.985346       0.000000
    400.829576     130.873908     123.313295       0.000000
    392.883218     139.579535     121.960876       0.000000
    382.666451     156.970340     124.644885       0.000000
    391.658798     161.502215     127.142725       0.000000
    383.710942     166.934589     126.893259       0.000000
    386.355091     177.454083     126.887313       0.000000
    376.973778     204.994832     126.179184       0.000000
    383.723399     198.040840     125.602709       0.000000
    392.439009     203.893909     126.445066       0.000000
    392.624732     214.424184     128.293684       0.000000
    407.511815     228.210733     125.035798       0.000000
    403.703193     237.521114     123.242621       0.000000
    394.347057     235.063229     125.607852       0.000000
    386.009118     239.446634     126.629303       0.000000
    395.235919     254.138280     120.305087       0.000000
    385.476865     288.045745     113.208090       0.000000
    392.730441     296.747592     112.658601       0.000000
    380.170848     315.620832     113.782511       0.000000
    380.969929     305.901272     113.808227       0.000000
    403.654546     306.493567     116.170755       0.000000
    394.333191     333.307020     117.123806       0.000000
    391.116549     343.125379     116.542810       0.000000
    398.554347     349.006117     119.833556       0.000000
    391.599284     364.930592     123.502836       0.000000
    386.178999     373.451453     123.309149       0.000000
    397.880294     390.288025     126.927388       0.000000
    388.101132     388.136363     126.138149       0.000000
    380.207712     392.578870     120.734006       0.000000
    387.509814     397.308821     124.533381       0.000000
    381.098325     411.957570     119.607590       0.000000
    420.436614     415.906732     130.610996       0.000000
    396.342948     437.461032     123.010629       0.000000
    387.998682     455.879264     124.799446       0.000000
    385.718278     465.633594     123.742640       0.000000
    379.348493     473.164539     123.115836       0.000000
    395.592428     480.925248     124.440737       0.000000
    391.875004     490.785850     124.407788       0.000000
    390.000000     500.000000     124.880758       0.000000
    400.000000      10.000000     124.321418       0.000000
    404.996291      20.526646     124.095941       0.000000
    382.572808      27.821131     122.411443       0.000000
    392.554339      29.919902     123.424652       0.000000
    410.961299      49.695601     121.713072       0.000000
    401.131248      53.572463     121.261060       0.000000
    394.720622      65.266659     120.646843       0.000000
    405.846750      83.619284     118.454986       0.000000
    404.014220     105.529667     119.548515       0.000000
    388.340942      90.490544     115.706272       0.000000
    397.517642      94.740762     116.874990       0.000000
    400.407893     118.491990     120.962869       0.000000
    401.059568     142.796164     125.122233       0.000000
    416.218439     142.129503     125.400907       0.000000
    409.055487     135.423663     124.475199       0.000000
    407.163034     150.148242     127.840779       0.000000
    393.855992     171.507428     128.703576       0.000000
    399.796970     183.348152     127.796575       0.000000
    377.097769     180.855718     125.133960       0.000000
    387.210285     188.512731     126.372879       0.000000
    395.609976     193.290410     127.390907       0.000000
    400.838520     207.660136     126.506921       0.000000
    417.146119     237.024291     123.588668       0.000000
    417.663045     222.924128     123.678037       0.000000
    397.154539     244.399587     123.642649       0.000000
    388.384084     247.963632     124.320246       0.000000
    405.715356     253.810156     119.189159       0.000000
    390.041234     276.536046     114.565139       0.000000
    394.319128     284.605074     113.148442       0.000000
    402.800445     295.014695     113.010870       0.000000
    412.364560     308.738708     116.663545       0.000000
    398.373808     314.260648     115.979626       0.000000
    397.764178     323.420071     115.653202       0.000000
    410.575201     341.045965     121.161142       0.000000
    400.599981     340.037463     117.968191       0.000000
    398.096978     358.207979     122.745092       0.000000
    404.787552     376.955494     129.598120       0.000000
    401.887002     368.499752     128.134848       0.000000
    420.287757     397.114795     129.971765       0.000000
    409.291261     397.297470     128.569807       0.000000
    397.292942     399.954590     126.585866       0.000000
    387.544625     406.659473     122.994759       0.000000
    389.633764     417.720555     123.370629       0.000000
    396.400435     423.731005     123.832430       0.000000
    402.680839     443.946592     125.568436       0.000000
    408.554517     473.415600     127.035943       0.000000
    397.336467     451.801438     125.607744       0.000000
    397.894358     471.363823     126.241513       0.000000
    400.909096     489.300663     123.761810       0.000000
    400.000000     500.000000     124.616301       0.000000
    410.000000      10.000000     124.099742       0.000000
    411.662959      28.013381     124.306303       0.000000
    402.295838      30.894871     123.853351       0.000000
    409.354879      37.460912     123.140365       0.000000
    427.577879      64.602379     120.472189       0.000000
    408.821370      58.492952     119.802973       0.000000
    404.941131      67.530130     118.974679       0.000000
    407.883267      93.527787     119.219584       0.000000
    414.723222      86.734329     119.560265       0.000000
    419.610180      94.802232     119.623728       0.000000
    414.416713     106.344537     119.984948       0.000000
    408.916415     125.004062     122.408054       0.000000
    430.186985     136.687079     126.795091       0.000000
    425.753275     146.863412     126.988902       0.000000
    398.629717     154.767647     126.479575       0.000000
    421.219647     162.138526     130.744638       0.000000
    409.138061     159.103855     130.396880       0.000000
    403.008409     174.240108     129.060852       0.000000
    404.296244     196.938991     126.998700       0.000000
    414.668129     197.792769     126.693787       0.000000
    411.975083     206.506520     127.295238       0.000000
    402.696846     218.928910     126.120060       0.000000
    411.431879     216.110774     125.379291       0.000000
    410.732317     245.095077     121.704747       0.000000
    414.652226     255.672502     119.327570       0.000000
    416.845550     267.858418     116.958980       0.000000
    406.694773     263.165332     116.186931       0.000000
    395.865691     262.718104     117.262730       0.000000
    400.984547     271.474476     114.605158       0.000000
    420.125681     303.006928     116.921816       0.000000
    420.364339     313.363390     119.478629       0.000000
    403.747672     330.096202     118.567447       0.000000
    423.480242     336.045522     122.878794       0.000000
    418.160968     352.300504     128.123053       0.000000
    406.773739     351.168113     123.845025       0.000000
    412.652424     366.037123     131.908175       0.000000
    407.576769     359.961282     127.482642       0.000000
    408.237582     387.294641     130.463170       0.000000
    430.938590     392.452630     131.710567       0.000000
    413.053726     409.975740     129.339173       0.000000
    404.820485     405.988551     127.927511       0.000000
    395.802527     409.925818     126.585785       0.000000
    404.450282     415.291444     126.676493       0.000000
    409.908160     438.517662     128.069196       0.000000
    403.909382     430.310161     125.769721       0.000000
    410.295873     450.540596     128.999498       0.000000
    417.527984     471.317531     127.627938       0.000000
    409.858215     482.439706     125.311033       0.000000
    412.806015     491.210474     124.964656       0.000000
    410.000000     500.000000     124.641926       0.000000
    420.000000      10.000000     124.977598       0.000000
    415.825067      18.082584     124.414606       0.000000
    422.667652      29.336588     123.456496       0.000000
    420.615551      56.146856     121.597250       0.000000
    425.212182      48.483918     122.975627       0.000000
    430.987275      56.406444     123.946471       0.000000
    417.149897      64.686373     119.440816       0.000000
    410.216775      75.240809     119.526836       0.000000
    429.030771      83.450241     120.665276       0.000000
    429.232872      93.434090     120.796584       0.000000
    423.742140     104.993329     121.344807       0.000000
    417.312483     116.072008     122.379032       0.000000
    418.141845     130.283666     124.125950       0.000000
    434.250292     122.335728     127.204740       0.000000
    435.908681     145.574188     128.112436       0.000000
    418.358793     152.839593     128.033572       0.000000
    401.342880     164.197216     128.807638       0.000000
    412.574763     173.625847     130.189099       0.000000
    416.404045     184.277428     129.579839       0.000000
    408.015359     187.926623     128.025058       0.000000
    420.543147     212.789267     125.458452       0.000000
    428.562961     218.282920     124.693126       0.000000
    426.201201     231.233157     123.229885       0.000000
    439.624231     245.672570     127.032967       0.000000
    426.847779     240.208972     123.610548       0.000000
    420.748554     248.605882     122.924124       0.000000
    424.919597     273.792909     118.826250       0.000000
    403.019894     281.779607     114.220371       0.000000
    410.917972     298.884735     113.860159       0.000000
    411.187437     318.851642     118.460570       0.000000
    431.402168     319.511507     122.825813       0.000000
    415.757854     330.466396     120.909286       0.000000
    420.487821     322.689052     121.187388       0.000000
    419.618858     344.144868     124.284662       0.000000
    426.734798     354.794241     131.301059       0.000000
    426.409328     364.205182     132.647934       0.000000
    414.028633     377.126353     132.630092       0.000000
    418.964659     385.935690     132.798465       0.000000
    423.077325     373.235549     133.123418       0.000000
    423.264963     406.015017     130.331645       0.000000
    412.192845     420.685808     128.839663       0.000000
    428.963248     419.920231     130.405183       0.000000
    424.158452     427.893698     130.278964       0.000000
    417.470310     444.649512     130.395783       0.000000
    405.063192     459.656560     127.766782       0.000000
    394.232845     462.892554     126.504766       0.000000
    426.534438     472.167337     127.830318       0.000000
    418.934716     481.514926     126.245030       0.000000
    426.009229     491.856555     126.057025       0.000000
    420.000000     500.000000     124.773439       0.000000
    430.000000      10.000000     126.154227       0.000000
    425.155366      18.807295     125.091112       0.000000
    431.531876      26.733688     125.312064       0.000000
    418.322107      41.579930     122.660436       0.000000
    437.441197      64.307951     122.282389       0.000000
    430.997245      73.103023     121.103528       0.000000
    421.364518      75.876434     120.389891       0.000000
    437.419258      80.191070     121.437731       0.000000
    441.988074     100.361420     121.926149       0.000000
    452.539779      87.809332     120.028842       0.000000
    433.037143     105.761799     122.727556       0.000000
    426.682478     114.675585     123.496308       0.000000
    425.334952     124.509917     124.424319       0.000000
    443.630450     119.828386     128.370710       0.000000
    437.499084     131.522182     129.317036       0.000000
    430.295308     165.047105     131.404246       0.000000
    422.658342     174.045396     131.150141       0.000000
    436.247015     178.342366     131.968665       0.000000
    428.392459     182.882243     131.020100       0.000000
    421.887483     191.417233     128.013545       0.000000
    423.220176     203.804029     126.838417       0.000000
    432.493180     206.219924     125.838837       0.000000
    439.069643     226.813884     126.235354       0.000000
    436.053301     236.650981     124.751778       0.000000
    436.420176     255.706653     127.278050       0.000000
    429.642573     250.343223     124.749264       0.000000
    427.600591     285.327602     119.966137       0.000000
    411.813069     276.777593     115.187342       0.000000
    411.194188     287.074369     114.441953       0.000000
    419.712260     292.943963     116.504853       0.000000
    429.110916     295.106507     119.309480       0.000000
    440.412941     320.933295     123.868666       0.000000
    434.568074     338.422544     126.732462       0.000000
    429.928416     328.523898     124.392233       0.000000
    430.226866     346.623206     127.639380       0.000000
    442.804725     344.357965     127.167824       0.000000
    432.806688     370.469346     133.715580       0.000000
    443.586871     388.688046     131.914820       0.000000
    428.098739     383.868920     132.696865       0.000000
    432.549072     402.653710     131.508348       0.000000
    441.895450     423.357184     129.617026       0.000000
    433.138608     428.553290     129.819828       0.000000
    415.527594     430.596278     129.546487       0.000000
    426.005530     437.777307     131.697304       0.000000
    419.428860     454.928551     129.552665       0.000000
    413.518025     462.683414     128.728061       0.000000
    424.617093     462.701083     127.987632       0.000000
    435.739629     466.936237     126.720622       0.000000
    430.191111     480.708169     127.002901       0.000000
    430.000000     500.000000     125.819159       0.000000
    440.000000      10.000000     126.650536       0.000000
    434.486833      17.961926     126.984430       0.000000
    443.563493      20.669839     127.256149       0.000000
    431.507320      37.720552     123.379317       0.000000
    447.303913      46.930459     124.749594       0.000000
    450.297056      62.985620     120.631948       0.000000
    444.807284      70.547057     121.368213       0.000000
    446.803965      80.633400     120.369510       0.000000
    458.178602      79.145887     119.227824       0.000000
    442.252736      91.058926     121.468167       0.000000
    458.408703     111.500187     124.777325       0.000000
    446.022140     109.952020     125.018414       0.000000
    436.897128     113.733150     125.511939       0.000000
    448.420744     156.774105     130.873759       0.000000
    444.729793     148.446926     130.609247       0.000000
    450.541194     177.473526     128.473643       0.000000
    428.906383     155.530303     128.086887       0.000000
    444.304045     187.150019     129.459377       0.000000
    434.666828     189.765591     130.285757       0.000000
    441.542944     208.273782     126.606007       0.000000
    437.380502     217.002486     126.133430       0.000000
    446.444400     216.676855     126.975056       0.000000
    448.099868     225.565369     126.974967       0.000000
    446.243917     254.395400     130.261332       0.000000
    428.635430     266.393851     122.732920       0.000000
    423.127088     259.369206     120.605199       0.000000
    435.983386     282.462602     123.537587       0.000000
    437.651534     291.999489     123.663032       0.000000
    419.116698     283.013712     116.902572       0.000000
    436.254989     302.879709     122.980131       0.000000
    427.764475     307.287237     119.259129       0.000000
    438.179743     311.849724     124.309576       0.000000
    449.211964     338.163819     125.774892       0.000000
    452.854941     347.626662     126.413399       0.000000
    446.822763     357.985787     129.277600       0.000000
    466.277313     362.059390     124.110745       0.000000
    437.596074     352.357813     129.710006       0.000000
    450.448816     398.398520     128.675567       0.000000
    439.233026     396.592623     131.019622       0.000000
    462.205842     384.445458     126.046376       0.000000
    434.380395     411.849786     130.832888       0.000000
    445.734434     415.269151     128.081414       0.000000
    450.606891     433.762604     124.849856       0.000000
    428.802873     448.769402     131.249454       0.000000
    437.295199     454.458899     129.037424       0.000000
    448.107857     453.599526     125.835674       0.000000
    445.089923     462.124888     126.445485       0.000000
    446.237354     471.422279     127.200612       0.000000
    435.925746     490.530106     126.753134       0.000000
    440.000000     500.000000     127.009209       0.000000
    450.000000      10.000000     127.047788       0.000000
    454.938268      18.223691     127.829190       0.000000
    451.328786      30.942253     127.724069       0.000000
    440.025578      30.233453     126.809373       0.000000
    436.104146      46.840638     124.806903       0.000000
    457.638248      56.469035     120.790974       0.000000
    455.680497      70.354681     119.281110       0.000000
    442.366223      55.932817     123.560662       0.000000
    460.082885      94.320326     118.934517       0.000000
    450.886281      99.703393     120.380986       0.000000
    463.017457     120.169572     129.726610       0.000000
    452.344887     117.546628     128.190679       0.000000
    445.967280     128.622969     130.350769       0.000000
    447.027188     138.933394     130.895067       0.000000
    457.304328     154.356536     131.336664       0.000000
    439.239300     158.056871     131.106310       0.000000
    442.832301     172.150914     131.239163       0.000000
    453.287485     187.279741     128.290408       0.000000
    429.327745     196.491717     127.139574       0.000000
    450.885611     197.934407     126.523247       0.000000
    455.177162     219.367522     126.798357       0.000000
    467.253634     214.820186     127.706335       0.000000
    456.552696     234.644088     131.288212       0.000000
    448.749922     243.885973     129.971151       0.000000
    444.403739     234.413596     127.569008       0.000000
    444.898194     273.870235     129.136692       0.000000
    436.432097     273.135728     124.236882       0.000000
    453.180879     290.622750     131.081009       0.000000
    462.331699     288.601203     132.861319       0.000000
    454.209177     302.970572     129.883887       0.000000
    444.493257     298.898487     126.535948       0.000000
    446.792665     308.801911     127.317182       0.000000
    444.005850     330.689586     125.328060       0.000000
    453.486550     329.043887     125.079078       0.000000
    458.973639     339.384265     126.057288       0.000000
    475.128417     363.647287     121.656094       0.000000
    463.696878     371.487059     125.695987       0.000000
    436.575665     361.093348     132.197851       0.000000
    438.253809     381.024124     132.963003       0.000000
    447.367423     376.665621     131.263079       0.000000
    442.733990     405.159622     129.240625       0.000000
    453.720123     406.819435     126.042733       0.000000
    445.256499     443.706729     125.934198       0.000000
    442.508493     435.328884     128.481461       0.000000
    435.145442     441.976222     130.284885       0.000000
    456.317744     457.459293     124.207305       0.000000
    454.461413     467.115041     124.589491       0.000000
    463.656673     470.809930     123.417710       0.000000
    442.368294     480.977298     127.639133       0.000000
    450.000000     500.000000     126.208600       0.000000
    460.000000      10.000000     124.169939       0.000000
    465.194860      18.033329     124.580563       0.000000
    463.808703      39.020350     123.525689       0.000000
    444.821891      38.323063     126.283382       0.000000
    455.550789      42.674563     125.237605       0.000000
    471.582025      44.211305     120.690233       0.000000
    468.564232      56.733314     120.142671       0.000000
    466.661472      75.401236     117.749643       0.000000
    466.816517      88.347911     119.321929       0.000000
    460.975218     103.252590     120.922540       0.000000
    476.421795     118.954049     128.161643       0.000000
    459.671605     134.583749     132.696201       0.000000
    471.054091     128.932841     131.175169       0.000000
    455.665726     144.363720     131.890485       0.000000
    470.981506     158.983606     129.748867       0.000000
    469.924114     178.909509     127.344798       0.000000
    459.991342     175.539502     128.504679       0.000000
    463.677362     185.666783     128.049916       0.000000
    441.128738     196.898048     128.343923       0.000000
    450.787101     208.542068     126.194954       0.000000
    459.701245     209.930945     126.459363       0.000000
    461.391747     227.178514     129.450741       0.000000
    455.374162     249.958500     132.754666       0.000000
    441.236097     264.034309     128.287690       0.000000
    450.320225     265.996868     131.824580       0.000000
    469.220004     258.734058     134.309426       0.000000
    445.642867     283.964370     128.584008       0.000000
    460.054042     268.766192     134.604238       0.000000
    455.154680     276.400584     133.732241       0.000000
    471.461063     296.587674     132.208695       0.000000
    462.342382     297.810862     130.825082       0.000000
    450.937562     317.046817     126.545152       0.000000
    460.146071     310.549970     129.519164       0.000000
    459.396751     321.513138     126.376526       0.000000
    462.346168     330.391874     125.959953       0.000000
    457.639589     356.438517     125.642122       0.000000
    467.332345     347.757948     125.057207       0.000000
    441.997248     368.809771     132.069802       0.000000
    456.829703     376.837867     128.175206       0.000000
    470.952542     391.011844     124.977914       0.000000
    452.384758     386.376346     129.665799       0.000000
    460.816971     395.705214     126.747207       0.000000
    452.356582     422.261360     125.053943       0.000000
    454.697502     443.031195     122.202813       0.000000
    463.258204     448.265296     120.721796       0.000000
    472.636729     453.393853     120.459836       0.000000
    466.262931     460.374139     122.377940       0.000000
    452.100503     478.806794     124.949546       0.000000
    450.166728     490.701350     126.226140       0.000000
    460.000000     500.000000     123.057667       0.000000
    470.000000      10.000000     122.520177       0.000000
    474.036891      18.586372     122.496872       0.000000
    460.727874      29.589078     126.416764       0.000000
    462.007282      48.084866     121.933648       0.000000
    475.461181      34.513925     122.558367       0.000000
    473.688498      68.851444     115.881787       0.000000
    479.763085      76.175946     115.728435       0.000000
    464.622486      66.108046     118.386321       0.000000
    473.311865      82.143483     118.292249       0.000000
    471.856485     100.753422     121.809150       0.000000
    467.379748     108.651147     124.445563       0.000000
    455.837303     126.458747     131.932829       0.000000
    468.022396     140.817805     132.107443       0.000000
    472.761124     168.407811     126.806479       0.000000
    450.400456     167.221005     129.269321       0.000000
    460.240905     165.167092     129.297250       0.000000
    472.846684     187.674552     128.049148       0.000000
    471.430762     196.865480     126.375619       0.000000
    461.407613     197.448646     126.468021       0.000000
    474.133527     205.480134     127.327152       0.000000
    477.331140     215.034063     129.462897       0.000000
    471.558377     223.540772     129.779218       0.000000
    463.405488     240.464605     132.223078       0.000000
    472.675991     243.933313     131.586200       0.000000
    456.763918     258.786127     134.171534       0.000000
    464.368780     251.005077     132.614873       0.000000
    476.115259     275.920870     132.902812       0.000000
    472.379530     287.299991     133.868154       0.000000
    465.018007     277.905871     134.462411       0.000000
    470.968343     305.817010     131.156365       0.000000
    479.963788     305.988863     129.840370       0.000000
    466.786739     316.894841     128.854186       0.000000
    472.455947     324.391546     127.816148       0.000000
    468.502016     338.808297     125.403205       0.000000
    475.095998     352.214326     123.815956       0.000000
    487.111714     373.399013     121.411577       0.000000
    454.778739     366.995178     128.567848       0.000000
    477.058646     372.615042     121.510987       0.000000
    470.924856     380.250430     124.316495       0.000000
    463.649399     407.471576     124.045204       0.000000
    471.930661     413.772216     121.642485       0.000000
    460.389476     416.602709     122.782660       0.000000
    469.255087     422.831908     119.696940       0.000000
    461.920531     437.021225     120.444616       0.000000
    459.306930     428.325679     122.413697       0.000000
    470.737028     441.231442     119.769776       0.000000
    471.972356     467.091140     120.356097       0.000000
    459.209856     488.650405     121.961639       0.000000
    469.484443     489.354293     119.820998       0.000000
    470.000000     500.000000     121.377556       0.000000
    480.000000      10.000000     121.113075       0.000000
    485.134040      18.487060     121.117934       0.000000
    481.773677      28.012110     120.975138       0.000000
    469.295791      27.076529     124.081871       0.000000
    479.921028      48.044457     118.329601       0.000000
    478.391958      57.199679     116.851960       0.000000
    482.193731      65.460285     115.453445       0.000000
    483.434207      86.974738     119.952130       0.000000
    476.340564      92.592627     121.429586       0.000000
    482.760166      98.777249     122.746709       0.000000
    478.580822     107.449481     124.300540       0.000000
    487.864382     115.138103     126.497655       0.000000
    477.856221     139.958597     129.494103       0.000000
    475.871365     150.008605     129.898916       0.000000
    466.319492     150.642563     130.988715       0.000000
    481.275889     157.935305     129.459775       0.000000
    488.118607     167.649970     127.785082       0.000000
    478.571284     175.916963     127.514924       0.000000
    481.434888     184.996205     127.360291       0.000000
    480.199040     194.069503     127.718925       0.000000
    483.006212     205.417440     129.843261       0.000000
    480.483077     225.157137     130.985468       0.000000
    481.286157     238.125424     131.960413       0.000000
    484.435799     249.661353     132.442195       0.000000
    475.847376     252.607736     133.275676       0.000000
    477.445589     262.478709     133.527721       0.000000
    470.204463     268.898808     134.920738       0.000000
    483.302457     270.509099     131.143134       0.000000
    492.382241     285.528556     129.958928       0.000000
    482.774765     282.574615     131.671818       0.000000
    475.784333     315.475117     129.210222       0.000000
    482.218294     323.678695     126.404429       0.000000
    477.226850     333.232275     125.913098       0.000000
    479.568456     341.694485     123.400001       0.000000
    484.302844     349.510253     122.318084       0.000000
    484.456301     359.119556     121.607503       0.000000
    491.338338     365.232817     122.540104       0.000000
    479.239189     385.446479     123.290282       0.000000
    480.109196     400.400721     121.759838       0.000000
    471.299043     402.103950     123.447333       0.000000
    481.151058     413.749229     120.424341       0.000000
    480.996737     424.241600     119.497591       0.000000
    469.524081     432.021893     119.872583       0.000000
    479.432506     434.319823     119.951416       0.000000
    479.945446     443.804576     119.943081       0.000000
    481.970014     454.379373     119.037149       0.000000
    478.279595     478.221691     120.325233       0.000000
    466.235031     480.377016     121.445766       0.000000
    479.797718     488.351022     118.912813       0.000000
    480.000000     500.000000     120.491158       0.000000
    490.000000      10.000000     120.106501       0.000000
    491.736495      24.765471     119.911919       0.000000
    491.912417      34.092322     119.101215       0.000000
    483.735716      39.054865     120.647560       0.000000
    490.514810      44.936744     118.018463       0.000000
    487.516897      53.640225     116.094780       0.000000
    491.194427      63.224756     115.616783       0.000000
    488.681586      74.730481     116.073744       0.000000
    492.004335      83.718995     118.424656       0.000000
    491.245301      96.126551     120.872652       0.000000
    490.371022     106.487982     124.344225       0.000000
    491.648989     125.717805     127.459936       0.000000
    480.084935     128.254696     129.074731       0.000000
    488.419606     134.048685     128.894068       0.000000
    489.819952     146.303358     128.788153       0.000000
    490.535704     158.005129     128.163428       0.000000
    489.519581     179.409044     127.419018       0.000000
    490.371291     188.953602     128.586790       0.000000
    490.913213     199.941474     130.647505       0.000000
    491.204681     208.918102     131.383416       0.000000
    486.579231     217.599164     130.810927       0.000000
    490.524449     225.663478     132.042508       0.000000
    470.355842     233.120575     130.364817       0.000000
    490.354579     235.821536     131.984224       0.000000
    492.067375     244.635096     131.199618       0.000000
    491.363831     256.065644     131.788306       0.000000
    492.258780     265.347590     132.333829       0.000000
    491.857217     275.561529     129.708413       0.000000
    491.773749     295.385097     129.050511       0.000000
    483.095543     295.383290     131.924936       0.000000
    489.718775     304.815160     128.029530       0.000000
    487.469464     314.086204     127.561067       0.000000
    491.052511     326.844772     124.935740       0.000000
    486.007816     335.505341     125.361693       0.000000
    491.270677     344.163010     124.433801       0.000000
    492.509944     355.073459     123.638354       0.000000
    490.499544     382.105314     121.723980       0.000000
    486.867573     392.558186     121.777421       0.000000
    491.116582     401.492036     121.209397       0.000000
    489.747028     410.789799     120.012183       0.000000
    490.913826     420.306751     118.660896       0.000000
    488.932999     429.473331     117.938701       0.000000
    488.943579     440.184015     117.379960       0.000000
    491.141340     451.358316     116.393985       0.000000
    490.423703     460.754067     118.071023       0.000000
    479.896240     463.261020     118.322693       0.000000
    490.580860     470.624614     118.312625       0.000000
    488.557917     479.715771     119.051730       0.000000
    489.166683     489.073480     118.394371       0.000000
    490.000000     500.000000     119.042607       0.000000
    500.000000      10.000000     118.958077       0.000000
    500.000000      20.000000     119.095614       0.000000
    500.000000      30.000000     118.267439       0.000000
    500.000000      40.000000     117.837107       0.000000
    500.000000      50.000000     116.601917       0.000000
    500.000000      60.000000     115.336556       0.000000
    500.000000      70.000000     115.690541       0.000000
    500.000000      80.000000     116.576841       0.000000
    500.000000      90.000000     118.084154       0.000000
    500.000000     100.000000     119.635167       0.000000
    500.000000     110.000000     121.844953       0.000000
    500.000000     120.000000     124.313928       0.000000
    500.000000     130.000000     126.817330       0.000000
    500.000000     140.000000     127.676560       0.000000
    500.000000     150.000000     129.199980       0.000000
    500.000000     160.000000     129.300786       0.000000
    500.000000     170.000000     129.272232       0.000000
    500.000000     180.000000     130.142553       0.000000
    500.000000     190.000000     131.272292       0.000000
    500.000000     200.000000     132.625337       0.000000
    500.000000     210.000000     133.526360       0.000000
    500.000000     220.000000     133.943888       0.000000
    500.000000     230.000000     132.341523       0.000000
    500.000000     240.000000     131.437165       0.000000
    500.000000     250.000000     131.631310       0.000000
    500.000000     260.000000     131.169912       0.000000
    500.000000     270.000000     130.319074       0.000000
    500.000000     280.000000     129.849420       0.000000
    500.000000     290.000000     127.538353       0.000000
    500.000000     300.000000     127.165232       0.000000
    500.000000     310.000000     127.696803       0.000000
    500.000000     320.000000     126.969406       0.000000
    500.000000     330.000000     125.537887       0.000000
    500.000000     340.000000     125.066100       0.000000
    500.000000     350.000000     124.830645       0.000000
    500.000000     360.000000     124.493909       0.000000
    500.000000     370.000000     123.981856       0.000000
    500.000000     380.000000     123.452503       0.000000
    500.000000     390.000000     123.434628       0.000000
    500.000000     400.000000     121.913035       0.000000
    500.000000     410.000000     120.913827       0.000000
    500.000000     420.000000     119.000384       0.000000
    500.000000     430.000000     117.863013       0.000000
    500.000000     440.000000     117.382068       0.000000
    500.000000     450.000000     117.850804       0.000000
    500.000000     460.000000     117.974418       0.000000
    500.000000     470.000000     118.949721       0.000000
    500.000000     480.000000     119.570044       0.000000
    500.000000     490.000000     118.775145       0.000000
    500.000000     500.000000     118.575531       0.000000
      0.000000      10.000000     118.958077       0.000000
      0.000000       0.000000     118.575531       0.000000
     10.000000       0.000000     119.217837       0.000000
      0.000000      20.000000     119.095614       0.000000
      0.000000      30.000000     118.267439       0.000000
      0.000000      40.000000     117.837107       0.000000
      0.000000      50.000000     116.601917       0.000000
      0.000000      60.000000     115.336556       0.000000
      0.000000      70.000000     115.690541       0.000000
      0.000000      80.000000     116.576841       0.000000
      0.000000      90.000000     118.084154       0.000000
      0.000000     100.000000     119.635167       0.000000
      0.000000     110.000000     121.844953       0.000000
      0.000000     120.000000     124.313928       0.000000
      0.000000     130.000000     126.817330       0.000000
      0.000000     140.000000     127.676560       0.000000
      0.000000     150.000000     129.199980       0.000000
      0.000000     160.000000     129.300786       0.000000
      0.000000     170.000000     129.272232       0.000000
      0.000000     180.000000     130.142553       0.000000
      0.000000     190.000000     131.272292       0.000000
      0.000000     200.000000     132.625337       0.000000
      0.000000     210.000000     133.526360       0.000000
      0.000000     220.000000     133.943888       0.000000
      0.000000     230.000000     132.341523       0.000000
      0.000000     240.000000     131.437165       0.000000
      0.000000     250.000000     131.631310       0.000000
      0.000000     260.000000     131.169912       0.000000
      0.000000     270.000000     130.319074       0.000000
      0.000000     280.000000     129.849420       0.000000
      0.000000     290.000000     127.538353       0.000000
      0.000000     300.000000     127.165232       0.000000
      0.000000     310.000000     127.696803       0.000000
      0.000000     320.000000     126.969406       0.000000
      0.000000     330.000000     125.537887       0.000000
      0.000000     340.000000     125.066100       0.000000
      0.000000     350.000000     124.830645       0.000000
      0.000000     360.000000     124.493909       0.000000
      0.000000     370.000000     123.981856       0.000000
      0.000000     380.000000     123.452503       0.000000
      0.000000     390.000000     123.434628       0.000000
      0.000000     400.000000     121.913035       0.000000
      0.000000     410.000000     120.913827       0.000000
      0.000000     420.000000     119.000384       0.000000
      0.000000     430.000000     117.863013       0.000000
      0.000000     440.000000     117.382068       0.000000
      0.000000     450.000000     117.850804       0.000000
      0.000000     460.000000     117.974418       0.000000
      0.000000     470.000000     118.949721       0.000000
      0.000000     480.000000     119.570044       0.000000
      0.000000     490.000000     118.775145       0.000000
     20.000000     510.000000     118.332756       0.000000
     10.000000     510.000000     118.710474       0.000000
      0.000000     500.000000     118.575531       0.000000
     20.000000       0.000000     119.564885       0.000000
     30.000000     510.000000     118.374429       0.000000
     30.000000       0.000000     119.535217       0.000000
     40.000000     510.000000     118.644294       0.000000
     40.000000       0.000000     120.762686       0.000000
     50.000000     510.000000     119.243569       0.000000
     50.000000       0.000000     121.208794       0.000000
     60.000000     510.000000     120.248501       0.000000
     60.000000       0.000000     122.807051       0.000000
     70.000000     510.000000     122.230554       0.000000
     70.000000       0.000000     122.544583       0.000000
     80.000000     510.000000     122.953760       0.000000
     80.000000       0.000000     123.264818       0.000000
     90.000000     510.000000     123.577067       0.000000
     90.000000       0.000000     124.393971       0.000000
    100.000000     510.000000     124.381543       0.000000
    100.000000       0.000000     124.562631       0.000000
    110.000000     510.000000     124.788538       0.000000
    110.000000       0.000000     124.508965       0.000000
    120.000000     510.000000     125.586018       0.000000
    120.000000       0.000000     124.508427       0.000000
    130.000000     510.000000     125.996062       0.000000
    130.000000       0.000000     124.237131       0.000000
    140.000000     510.000000     126.531861       0.000000
    140.000000       0.000000     124.387786       0.000000
    150.000000     510.000000     126.241642       0.000000
    150.000000       0.000000     124.729248       0.000000
    160.000000     510.000000     125.766816       0.000000
    160.000000       0.000000     125.229004       0.000000
    170.000000     510.000000     126.060097       0.000000
    170.000000       0.000000     125.576394       0.000000
    180.000000     510.000000     125.944658       0.000000
    180.000000       0.000000     125.784924       0.000000
    190.000000     510.000000     126.443541       0.000000
    190.000000       0.000000     126.225772       0.000000
    200.000000     510.000000     126.735606       0.000000
    200.000000       0.000000     125.688240       0.000000
    210.000000     510.000000     126.822369       0.000000
    210.000000       0.000000     125.229135       0.000000
    220.000000     510.000000     125.320316       0.000000
    220.000000       0.000000     124.537036       0.000000
    230.000000     510.000000     123.580853       0.000000
    230.000000       0.000000     123.069779       0.000000
    240.000000     510.000000     122.490261       0.000000
    240.000000       0.000000     122.589869       0.000000
    250.000000     510.000000     120.496092       0.000000
    250.000000       0.000000     121.583701       0.000000
    260.000000     510.000000     121.140706       0.000000
