    314.349044     195.847268     116.469231       0.000000
    313.061292     208.374063     116.105686       0.000000
    314.042539     220.338859     118.046103       0.000000
    322.256447     224.550988     123.394358       0.000000
    314.574203     229.837668     123.312290       0.000000
    309.290273     259.334802     126.134930       0.000000
    306.989402     275.844484     125.393235       0.000000
    306.864316     285.002063     125.602655       0.000000
    297.285217     283.866518     125.186533       0.000000
    320.332638     285.124593     125.023974       0.000000
    324.321893     293.874015     123.027064       0.000000
    314.535775     292.499389     124.438365       0.000000
    302.797213     312.285817     119.918047       0.000000
    312.471433     322.290108     118.649914       0.000000
    313.717808     332.198766     117.950908       0.000000
    319.616357     355.500656     116.462698       0.000000
    318.343221     340.326625     118.183702       0.000000
    310.816543     348.627816     120.050185       0.000000
    305.017684     374.094099     125.957411       0.000000
    313.606783     383.051932     122.983837       0.000000
    296.283652     385.844042     132.771263       0.000000
    301.792156     406.175988     129.437689       0.000000
    304.753856     414.958770     130.030354       0.000000
    322.261681     419.584151     123.661938       0.000000
    320.807609     470.544755     129.190851       0.000000
    313.952226     462.962553     126.310467       0.000000
    308.217022     452.829754     125.292966       0.000000
    304.874925     461.966457     128.122004       0.000000
    313.836833     480.350165     131.005625       0.000000
    300.511577     489.233350     129.406538       0.000000
    310.000000     500.000000     131.534420       0.000000
    320.000000      10.000000     131.978835       0.000000
    315.080030      17.799725     131.539247       0.000000
    319.467545      26.230747     131.757825       0.000000
    314.129496      51.422277     127.719481       0.000000
    316.530593      60.189175     126.916676       0.000000
    335.742734      73.544597     125.019528       0.000000
    344.992089      67.022199     123.560905       0.000000
    326.468654      76.402297     125.096681       0.000000
    317.383251      86.367643     128.720746       0.000000
    333.132277     105.627388     128.866232       0.000000
    324.077824     104.304154     130.626619       0.000000
    313.321981     115.381114     137.378850       0.000000
    309.661692     127.538737     140.116827       0.000000
    310.661251     136.840782     137.237403       0.000000
    321.926618     133.958479     138.365260       0.000000
    329.622701     169.602920     125.723111       0.000000
    315.491057     162.336327     131.335065       0.000000
    317.892249     184.050404     119.404661       0.000000
    308.620757     185.267959     120.107650       0.000000
    321.881081     202.238678     116.872058       0.000000
    323.021425     211.088237     118.193269       0.000000
    331.220314     222.493303     122.962566       0.000000
    315.032588     238.706130     127.278088       0.000000
    307.452973     244.836000     125.558114       0.000000
    322.321314     256.302342     126.453141       0.000000
    315.391654     249.768695     125.739375       0.000000
    335.919540     263.335534     125.211258       0.000000
    316.869560     276.114661     126.126185       0.000000
    330.186681     284.252306     124.524616       0.000000
    316.894703     303.928042     123.405972       0.000000
    311.661235     313.318554     121.315914       0.000000
    331.954901     334.532511     114.311759       0.000000
    327.341319     342.234112     115.196365       0.000000
    342.404840     332.317522     114.370634       0.000000
    330.047599     351.128549     113.921148       0.000000
    312.135042     362.837157     120.631230       0.000000
    302.124985     352.712620     122.535454       0.000000
    313.394575     373.073885     121.438214       0.000000
    320.684329     393.544057     120.111289       0.000000
    319.808716     403.581718     121.748646       0.000000
    311.335280     421.487096     126.927221       0.000000
    316.851220     430.348295     124.320394       0.000000
    327.217502     446.691024     123.016983       0.000000
    326.838006     428.263359     121.512026       0.000000
    324.592295     461.118230     125.026899       0.000000
    352.846434     446.414475     120.573871       0.000000
    310.964162     471.658233     128.662050       0.000000
    322.836434     479.242331     131.399455       0.000000
    319.702740     488.727363     131.544435       0.000000
    320.000000     500.000000     131.947235       0.000000
    330.000000      10.000000     132.404750       0.000000
    336.373804      19.912338     132.574075       0.000000
    327.189095      18.717098     132.052616       0.000000
    328.450296      27.898297     131.919687       0.000000
    321.856841      35.666285     130.582097       0.000000
    345.506767      54.444761     124.563246       0.000000
    334.852810      51.673344     127.570127       0.000000
    330.930954      94.698714     125.985147       0.000000
    352.287390      94.578152     123.069530       0.000000
    322.832778     113.544132     134.366434       0.000000
    334.559667     117.409128     132.305839       0.000000
    340.593437     100.331227     125.534611       0.000000
    319.925652     124.477604     138.549842       0.000000
    336.134739     131.230088     134.724693       0.000000
    323.797741     143.353218     135.559777       0.000000
    320.271650     169.584066     126.986768       0.000000
    327.173517     161.792328     130.451871       0.000000
    332.295145     180.938493     118.518863       0.000000
    332.063034     192.241114     116.589641       0.000000
    331.261907     202.265321     117.747329       0.000000
    332.105908     214.049456     119.334603       0.000000
    328.281067     233.670785     127.728786       0.000000
    332.228004     243.176561     127.605694       0.000000
    323.440699     245.439472     128.022731       0.000000
    332.164567     255.187016     126.423060       0.000000
    327.225244     265.954301     126.232103       0.000000
    335.005367     273.854792     123.653720       0.000000
    326.321638     275.178335     126.046537       0.000000
    340.289915     284.961486     122.090813       0.000000
    333.716677     294.386833     122.956846       0.000000
    323.561468     331.382626     117.157593       0.000000
    321.248080     311.512530     120.896966       0.000000
    323.352045     321.099568     120.045809       0.000000
    336.385014     343.267030     112.693195       0.000000
    343.629494     352.954268     114.461260       0.000000
    330.951115     372.503456     117.113633       0.000000
    323.838684     363.727006     114.881637       0.000000
    321.840148     374.350468     118.470260       0.000000
    322.637721     384.030216     118.924527       0.000000
    329.271397     396.773992     117.964722       0.000000
    310.157943     400.472277     125.850777       0.000000
    325.433730     411.135885     120.877563       0.000000
    335.500686     430.073062     119.675492       0.000000
    318.094536     440.669329     122.508823       0.000000
    340.735869     449.535557     121.390878       0.000000
    336.686114     466.389076     124.482731       0.000000
    329.501270     472.829447     127.982885       0.000000
    330.231871     489.851241     130.979337       0.000000
    341.357097     491.089406     129.814073       0.000000
    330.000000     500.000000     131.286880       0.000000
    340.000000      10.000000     131.735317       0.000000
    346.681291      18.623263     130.789518       0.000000
    337.717975      30.421600     130.159309       0.000000
    345.164255      40.141355     127.018623       0.000000
    330.204062      40.103110     128.925610       0.000000
    338.059342      60.291782     125.270917       0.000000
    322.210565      47.662263     129.033500       0.000000
    337.805148      83.159049     123.812749       0.000000
    342.280586      91.275269     123.414252       0.000000
    340.361712     111.150948     127.872461       0.000000
    313.980924     101.492689     132.874713       0.000000
    341.233941     123.169071     130.237865       0.000000
    328.545430     123.035347     136.165951       0.000000
    349.023326     129.563449     126.333407       0.000000
    333.169013     140.325216     134.454992       0.000000
    339.413012     174.795346     120.995948       0.000000
    350.277835     179.805430     119.351816       0.000000
    354.097944     188.343039     118.978825       0.000000
    322.755943     191.478430     116.711047       0.000000
    342.267050     184.046876     118.397585       0.000000
    340.884484     203.308175     118.460715       0.000000
    338.242143     231.220943     125.430481       0.000000
    349.746370     230.908113     124.912062       0.000000
    344.697550     249.116296     127.276438       0.000000
    344.353268     239.567711     126.366376       0.000000
    345.525988     258.878610     125.108435       0.000000
    353.022971     254.234329     128.050790       0.000000
    346.253996     271.239964     123.512184       0.000000
    342.899003     295.528800     121.438921       0.000000
    329.746766     314.448945     119.599443       0.000000
    335.457465     324.683327     116.803980       0.000000
    345.736353     322.036808     117.503371       0.000000
    345.675758     341.528161     112.885331       0.000000
    356.074186     344.214411     113.688410       0.000000
    347.748344     364.128899     115.705750       0.000000
    335.549419     358.497852     114.858057       0.000000
    338.522622     367.545052     115.965987       0.000000
    347.222916     387.332336     115.977963       0.000000
    332.616743     383.873747     117.337034       0.000000
    335.808513     405.869130     118.017327       0.000000
    313.766570     411.141017     126.227677       0.000000
    332.180290     417.512071     118.896769       0.000000
    341.165035     419.376385     116.448873       0.000000
    329.627589     437.237031     121.706053       0.000000
    361.163222     433.755159     118.698735       0.000000
    339.128633     439.699837     119.904321       0.000000
    332.786535     456.121492     123.709865       0.000000
    343.477017     472.941081     126.129979       0.000000
    351.321853     490.666770     127.908669       0.000000
    340.000000     500.000000     132.028952       0.000000
    350.000000      10.000000     130.396313       0.000000
    355.958590      20.894777     128.823222       0.000000
    347.308455      29.551326     128.204149       0.000000
    357.121231      40.075565     124.511401       0.000000
    351.384927      47.553138     124.899450       0.000000
    352.895754      60.165647     123.517183       0.000000
    350.003691      75.285423     122.360844       0.000000
    348.962535      84.403400     122.454231       0.000000
    360.019904      99.420851     121.500655       0.000000
    360.103657     109.058013     123.095740       0.000000
    349.864724     116.982380     125.082443       0.000000
    357.320777     124.977735     124.045652       0.000000
    342.664362     135.596020     129.822938       0.000000
    340.716283     147.008420     130.033937       0.000000
    338.174973     165.985567     125.855018       0.000000
    348.771349     150.135375     126.969570       0.000000
    345.007325     158.872056     126.231778       0.000000
    348.648481     169.292316     122.374099       0.000000
    351.439031     198.092617     119.448758       0.000000
    342.936585     194.344618     118.595017       0.000000
    340.984266     212.548383     119.357109       0.000000
    359.253063     202.236417     121.607263       0.000000
    342.292917     223.191331     122.242909       0.000000
    353.468340     240.882600     126.947580       0.000000
    367.112352     240.141847     127.759656       0.000000
    360.846996     246.743893     127.064845       0.000000
    354.629716     266.888973     123.789757       0.000000
    365.834987     268.967041     121.274282       0.000000
    349.429044     285.019394     120.526760       0.000000
    328.496213     302.857158     122.683115       0.000000
    340.111531     315.211483     119.219577       0.000000
    363.174882     314.751079     114.580652       0.000000
    353.224637     316.249521     116.566590       0.000000
    353.065459     353.519452     114.453053       0.000000
    357.580231     362.556332     115.534546       0.000000
    348.551575     373.180816     115.721603       0.000000
    339.782068     376.832153     116.647589       0.000000
    354.367577     381.846579     116.904236       0.000000
    338.117918     392.789558     116.646817       0.000000
    357.137353     399.747302     116.996457       0.000000
    348.422788     397.321852     116.373043       0.000000
    345.157177     406.647400     116.541281       0.000000
    348.488093     429.073853     117.672381       0.000000
    352.722518     437.509778     119.174104       0.000000
    352.235440     456.922684     121.691572       0.000000
    342.935069     460.007100     120.960741       0.000000
    351.149528     466.724721     124.004543       0.000000
    336.752595     478.631954     128.698729       0.000000
    363.313351     491.304780     126.720214       0.000000
    350.000000     500.000000     130.234259       0.000000
    360.000000      10.000000     129.104176       0.000000
    365.916203      22.841307     124.921730       0.000000
    366.572226      34.387239     124.061384       0.000000
    359.580164      53.273853     124.380801       0.000000
    373.887948      51.647466     122.698296       0.000000
    366.527006      59.094704     122.834341       0.000000
    359.046364      66.993466     123.154094       0.000000
    369.900364      80.746878     121.434412       0.000000
    359.380495      87.489948     122.331747       0.000000
    370.113589     102.533755     120.874439       0.000000
    372.700741     114.835032     121.090087       0.000000
    358.990329     136.279141     124.356209       0.000000
    336.171700     156.458978     130.002111       0.000000
    329.389438     150.538090     133.172392       0.000000
    359.068417     145.042243     126.477643       0.000000
    363.432735     153.935540     124.043616       0.000000
    355.025904     158.160397     125.321020       0.000000
    358.190352     175.308315     121.914633       0.000000
    362.440574     193.395223     120.929591       0.000000
    371.273593     196.089222     123.262001       0.000000
    367.651114     205.918203     123.272801       0.000000
    350.468407     212.924202     121.797438       0.000000
    353.921475     221.313932     123.299006       0.000000
    376.674504     241.862069     127.302771       0.000000
    370.343875     250.618555     127.234890       0.000000
    361.666861     257.962946     126.558814       0.000000
    376.251978     268.933470     119.194565       0.000000
    362.184596     290.427085     118.072800       0.000000
    351.216376     307.165250     117.952590       0.000000
    337.573650     303.838532     121.857316       0.000000
    360.636329     304.037369     116.574598       0.000000
    365.620705     332.947632     116.748028       0.000000
    353.267371     334.930808     114.359279       0.000000
    374.108027     339.797323     116.743631       0.000000
    365.040813     344.156246     115.099968       0.000000
    362.152348     354.606299     114.429781       0.000000
    358.829353     372.862385     115.895434       0.000000
    363.945308     380.281245     116.988759       0.000000
    367.002971     396.167857     116.862895       0.000000
    357.908410     412.217236     115.129807       0.000000
    367.773439     405.237819     116.528916       0.000000
    350.486807     420.347395     115.284406       0.000000
    371.509469     437.486171     119.759141       0.000000
    363.880614     442.142603     122.426231       0.000000
    360.380190     452.122567     123.096755       0.000000
    357.989364     473.916739     124.326749       0.000000
    358.253708     483.666766     125.765957       0.000000
    348.667108     481.703608     126.335404       0.000000
    372.242288     486.977440     124.741096       0.000000
    360.000000     500.000000     128.810682       0.000000
    370.000000      10.000000     126.294922       0.000000
    376.908477      20.349196     123.526903       0.000000
    359.008197      29.303500     126.069861       0.000000
    366.528559      44.349163     123.752414       0.000000
    377.093220      63.586365     120.940182       0.000000
    360.346738      78.088477     122.897506       0.000000
    377.847378      73.973885     120.591228       0.000000
    394.484936      82.901696     116.497533       0.000000
    368.972215      90.539118     120.756368       0.000000
    350.584514     104.699587     123.934586       0.000000
    380.856721     127.807030     121.070400       0.000000
    364.620582     119.040982     122.767954       0.000000
    369.962064     129.814063     122.450776       0.000000
    389.983917     127.568437     120.468567       0.000000
    350.615538     141.190834     127.402879       0.000000
    367.563954     138.979665     122.815415       0.000000
    369.917499     147.690734     122.550734       0.000000
    366.713246     172.553467     123.632439       0.000000
    368.135115     186.345835     121.660010       0.000000
    372.487969     214.462497     124.997010       0.000000
    359.399823     213.533107     122.987183       0.000000
    366.521653     221.508894     127.066408       0.000000
    359.771191     233.207805     126.701020       0.000000
    369.129811     230.134491     128.050428       0.000000
    378.322186     253.562785     124.052756       0.000000
    372.324234     261.653185     123.040914       0.000000
    386.210991     258.093017     120.456950       0.000000
    358.160921     278.169271     119.941255       0.000000
    370.984622     296.732453     116.728201       0.000000
    353.071112     294.724687     118.802138       0.000000
    371.539270     308.571093     115.180004       0.000000
    388.928924     321.112602     115.876564       0.000000
    359.239828     326.432318     116.460063       0.000000
    385.919609     329.746821     115.724210       0.000000
    376.036419     328.478408     116.508572       0.000000
    372.968721     352.985343     115.265990       0.000000
    368.896529     361.471752     115.552121       0.000000
    368.293301     371.826136     115.321598       0.000000
    359.189093     389.601803     116.158299       0.000000
    377.279145     403.313069     118.188108       0.000000
    379.843194     422.654599     117.541403       0.000000
    371.829623     426.621597     116.431205       0.000000
    360.430829     422.019113     116.487523       0.000000
    373.906421     446.437669     123.747176       0.000000
    379.406212     454.489223     124.688382       0.000000
    359.721033     462.944815     122.512672       0.000000
    369.291659     458.984324     123.139999       0.000000
    367.130378     477.394286     124.689845       0.000000
    381.774803     490.936519     125.349936       0.000000
    370.000000     500.000000     126.982831       0.000000
    380.000000      10.000000     124.966661       0.000000
    386.131371      18.332743     123.026530       0.000000
    375.637165      32.422231     122.863954       0.000000
    383.940156      46.984577     123.041232       0.000000
    394.227361      37.659859     122.375201       0.000000
    384.162218      56.963405     122.025530       0.000000
    367.724647      70.698744     121.777292       0.000000
    385.571342      66.537728     120.222461       0.000000
    379.288892     100.093873     119.199529       0.000000
    382.204926     108.969272     119.212776       0.000000
    390.677935     112.266576     121.414311       0.000000
    384.069715     118.625663     120.765026       0.000000
    380.756354     145.140806     121.142669       0.000000
    377.691017     136.226776     121.984947       0.000000
    372.308995     162.397565     124.483212       0.000000
    391.083177     148.855283     122.843328       0.000000
    362.633136     163.526320     124.062245       0.000000
    375.680704     171.468881     125.249400       0.000000
    378.185181     190.004154     123.334297       0.000000
    385.909258     211.040266     127.112867       0.000000
    385.043963     219.911550     129.619031       0.000000
    399.026625     227.811998     126.656763       0.000000
    375.526196     223.184040     128.855080       0.000000
    387.897621     230.709846     130.149242       0.000000
    378.385777     232.047838     129.464049       0.000000
    386.158248     266.982827     118.674365       0.000000
    378.448616     279.864922     117.118042       0.000000
    368.970893     277.009971     118.516497       0.000000
    370.710150     285.757854     117.105262       0.000000
    380.771322     296.644553     114.526399       0.000000
    371.580600     320.312100     116.615913       0.000000
    389.881087     307.441779     115.124659       0.000000
    383.152395     339.030261     115.799113       0.000000
    380.357310     347.670087     115.748974       0.000000
    387.373520     353.701589     118.089592       0.000000
    379.435211     361.432662     116.825514       0.000000
    377.790480     371.533236     118.189279       0.000000
    395.342792     377.373864     126.575990       0.000000
    378.161319     380.576224     120.095731       0.000000
    371.354860     386.649593     116.886198       0.000000
    370.368795     417.544907     115.863192       0.000000
    389.963256     431.217968     122.310251       0.000000
    383.379436     443.220709     122.517513       0.000000
    381.693896     432.986562     118.627082       0.000000
    392.072558     446.798981     124.428407       0.000000
    377.521335     463.586107     123.850918       0.000000
    367.168747     468.097219     123.793467       0.000000
    381.079105     481.840930     124.362282       0.000000
    388.971633     475.274273     124.357088       0.000000
    380.000000     500.000000     125.528955       0.000000
    390.000000      10.000000     124.510079       0.000000
    395.233142      19.702868     124.158214       0.000000
    375.749698      42.166971     122.626962       0.000000
    383.693188      37.607378     122.214885       0.000000
    401.844633      45.102047     122.276049       0.000000
    392.653169      52.076782     122.587002       0.000000
    391.304507      74.467767     118.767825       0.000000
    401.701161      76.370217     117.112659       0.000000
    384.245035      80.127283     118.133066       0.000000
    377.180372      86.785617     118.745694       0.000000
    391.767731     102.573948     118.300224       0.000000
    408.043510     112.831879     120.700426       0.000000
    399.208270     131.227100     122.269311       0.000000
    392.923073     137.937019     122.404925       0.000000
    382.164499     155.662824     122.962518       0.000000
    389.767136     158.760015     126.790208       0.000000
    382.004549     164.858095     125.380318       0.000000
    386.614732     178.873633     124.978296       0.000000
    377.786915     205.762127     124.559933       0.000000
    382.798100     197.561521     125.092819       0.000000
    391.945244     203.943284     127.712034       0.000000
    393.746444     216.937498     129.331769       0.000000
    408.576430     227.269293     124.525846       0.000000
    403.262000     238.056783     123.464879       0.000000
    394.436660     238.271885     125.624090       0.000000
    385.591172     239.631119     127.151766       0.000000
    394.465916     254.467489     120.297495       0.000000
    384.591977     287.189580     115.553743       0.000000
    391.905459     296.353996     114.431255       0.000000
    379.553985     314.998764     116.562709       0.000000
    380.891696     305.759212     115.484786       0.000000
    403.556439     304.275382     114.906334       0.000000
    393.264592     334.942824     116.355303       0.000000
    391.221258     343.802652     117.286431       0.000000
    398.625775     349.425905     120.646370       0.000000
    392.053317     367.003900     122.678279       0.000000
    385.740639     374.150143     122.336929       0.000000
    400.559665     387.457308     128.691670       0.000000
    388.752611     387.101777     125.646663       0.000000
    380.311082     390.239792     121.083870       0.000000
    387.490425     397.249968     124.437294       0.000000
    378.854785     413.159710     117.375294       0.000000
    419.626549     414.622644     130.632623       0.000000
    396.497874     437.556843     124.150667       0.000000
    388.368196     456.569111     124.872312       0.000000
    386.704509     465.752651     123.825762       0.000000
    378.923697     472.603547     124.133099       0.000000
    397.462362     479.882149     124.430959       0.000000
    391.767607     488.966351     124.909762       0.000000
    390.000000     500.000000     125.581267       0.000000
    400.000000      10.000000     124.400499       0.000000
    405.275305      22.434628     123.481992       0.000000
    383.473067      27.566852     121.284140       0.000000
    392.670417      28.162165     122.026105       0.000000
    412.621551      49.104961     121.530337       0.000000
    401.970478      54.542830     121.193934       0.000000
    395.161262      65.682463     119.113336       0.000000
    403.361801      86.263443     117.792672       0.000000
    404.098673     104.706949     119.490648       0.000000
    387.486171      88.704043     116.084741       0.000000
    395.760246      93.663501     117.510926       0.000000
    399.897410     116.964417     121.630344       0.000000
    400.316209     144.649762     124.071465       0.000000
    418.606752     141.370076     125.382829       0.000000
    409.743070     138.366189     124.335774       0.000000
    408.542739     149.944832     126.960126       0.000000
    392.200775     171.352897     126.137919       0.000000
    400.705127     182.937420     127.154148       0.000000
    377.430646     180.869190     123.563456       0.000000
    387.685357     188.769034     126.322559       0.000000
    394.873877     195.220283     126.486288       0.000000
    400.813287     206.916998     127.785808       0.000000
    416.129898     234.132132     123.493014       0.000000
    419.349742     222.481226     125.333875       0.000000
    397.682601     245.928616     121.338304       0.000000
    386.361264     248.818537     123.170003       0.000000
    403.857363     255.082646     119.553462       0.000000
    389.679452     275.387273     115.167348       0.000000
    393.479740     284.338096     113.837883       0.000000
    401.566054     293.542256     113.703300       0.000000
    411.500338     308.543010     116.361023       0.000000
    400.695687     314.658271     115.747721       0.000000
    398.612403     324.220794     116.688952       0.000000
    409.592180     340.957361     119.630591       0.000000
    400.691129     340.605803     117.716045       0.000000
    399.264620     359.085124     125.039641       0.000000
    404.104903     378.463863     129.863952       0.000000
    401.931676     369.049100     129.306851       0.000000
    420.049635     394.454545     132.058149       0.000000
    408.801388     397.486619     131.101210       0.000000
    396.197850     399.263588     127.115143       0.000000
    386.893741     406.092158     122.817449       0.000000
    390.252916     416.769740     121.811393       0.000000
    397.308191     424.202041     125.799795       0.000000
    402.898767     443.697567     126.815552       0.000000
    408.301567     473.359832     126.152536       0.000000
    399.263124     452.533287     126.817735       0.000000
    398.944122     471.012775     126.191980       0.000000
    403.029537     490.704643     123.941633       0.000000
    400.000000     500.000000     124.055161       0.000000
    410.000000      10.000000     124.253354       0.000000
    413.873377      29.251027     123.210578       0.000000
    401.431754      31.033958     121.841615       0.000000
    409.585730      40.420472     122.036149       0.000000
    425.124898      65.865677     120.729112       0.000000
    410.256071      58.323430     119.599361       0.000000
    404.307359      66.148190     118.033300       0.000000
    407.540749      94.806126     119.787177       0.000000
    413.502937      86.504519     119.601103       0.000000
    418.962812      95.822931     120.396198       0.000000
    415.605810     106.101904     120.550705       0.000000
    408.866701     126.484242     121.781899       0.000000
    430.212723     138.501862     127.518719       0.000000
    426.386468     146.731816     127.076281       0.000000
    400.042587     154.244433     126.767206       0.000000
    418.727403     162.719092     128.932274       0.000000
    409.261100     160.291928     129.404441       0.000000
    403.119650     173.889478     128.780436       0.000000
    403.893667     197.785850     127.186217       0.000000
    413.563439     196.999497     126.891744       0.000000
    409.936161     205.669960     126.820877       0.000000
    402.744657     218.749095     126.016052       0.000000
    410.905926     214.836015     125.117358       0.000000
    409.982884     245.300317     122.235742       0.000000
    415.354779     256.107518     119.184970       0.000000
    418.358042     266.688202     116.733321       0.000000
    407.741433     267.299498     114.950496       0.000000
    396.105047     263.353089     118.287724       0.000000
    399.991617     272.446599     114.111781       0.000000
    420.416460     303.043472     116.931059       0.000000
    420.792277     313.022792     119.389942       0.000000
    406.690797     329.806848     117.127095       0.000000
    422.197857     336.218349     124.504484       0.000000
    418.524723     354.969048     128.994186       0.000000
    407.316992     348.686375     123.667341       0.000000
    414.785287     367.105565     133.044390       0.000000
    408.047780     357.008028     129.276742       0.000000
    409.308252     387.464530     131.414160       0.000000
    431.269713     393.991162     132.169545       0.000000
    413.474642     405.981703     130.077703       0.000000
    403.960447     405.997128     128.601885       0.000000
    396.185777     409.124183     125.292694       0.000000
    402.461057     415.635804     126.644818       0.000000
    410.048750     437.856978     129.156211       0.000000
    405.304345     427.806619     128.342636       0.000000
    409.482125     452.262341     127.773246       0.000000
    417.369540     470.873004     126.996789       0.000000
    407.150574     482.404162     124.839806       0.000000
    412.578050     489.927833     125.906016       0.000000
    410.000000     500.000000     124.776090       0.000000
    420.000000      10.000000     125.820606       0.000000
    415.235758      17.537807     123.771861       0.000000
    422.657247      31.627308     124.816786       0.000000
    420.607018      57.796866     121.687673       0.000000
    427.861050      46.994699     123.689474       0.000000
    429.627251      55.833702     122.968487       0.000000
    415.855802      65.977336     119.690647       0.000000
    410.679085      74.259116     118.031552       0.000000
    425.427677      84.897806     119.972883       0.000000
    431.838715      93.066726     120.036462       0.000000
    425.369592     103.225479     121.752891       0.000000
    418.233130     115.945269     122.556910       0.000000
    418.858032     130.214845     125.344209       0.000000
    435.244583     123.228422     128.085595       0.000000
    435.957572     147.663227     130.142986       0.000000
    417.573983     150.073079     127.437842       0.000000
    400.491267     164.899264     128.276294       0.000000
    413.507816     172.653053     129.223966       0.000000
    415.152744     181.923861     129.546823       0.000000
    407.735281     188.657874     128.106671       0.000000
    419.979848     213.403425     126.059325       0.000000
    427.753399     218.188867     125.937763       0.000000
    425.453508     231.394976     125.475936       0.000000
    440.162561     243.722411     127.160944       0.000000
    429.059836     241.197651     125.393098       0.000000
    418.854416     247.533821     122.393491       0.000000
    424.331630     275.654187     117.460015       0.000000
    402.153419     281.661142     113.395169       0.000000
    412.149921     299.825384     113.845877       0.000000
    411.552036     319.265748     117.231889       0.000000
    431.138281     320.174523     121.161811       0.000000
    415.129393     332.713679     119.247263       0.000000
    419.664836     324.084468     119.654711       0.000000
    421.318733     345.458554     126.211854       0.000000
    427.459791     356.038271     129.589478       0.000000
    423.758610     364.105266     133.956785       0.000000
    413.132175     376.013183     132.963320       0.000000
    417.739863     384.798225     133.378843       0.000000
    423.141651     373.755734     133.952339       0.000000
    423.644309     405.067134     132.152958       0.000000
    411.649339     419.470303     129.273521       0.000000
    429.096383     419.413174     130.382982       0.000000
    424.267376     427.511630     130.245538       0.000000
    417.567123     444.592713     130.285449       0.000000
    404.767770     461.548998     127.193281       0.000000
    395.267544     462.422073     125.405313       0.000000
    427.221404     472.336685     126.772831       0.000000
    418.803945     479.684088     125.522776       0.000000
    423.566425     491.600856     127.381125       0.000000
    420.000000     500.000000     126.875222       0.000000
    430.000000      10.000000     126.714817       0.000000
    424.360532      19.213672     125.240589       0.000000
    431.751519      28.854460     125.751527       0.000000
    420.673207      41.752785     121.793919       0.000000
    435.224917      63.482502     122.693784       0.000000
    431.313624      73.080832     120.423131       0.000000
    421.008188      76.501490     119.978898       0.000000
    435.537672      82.247873     120.050492       0.000000
    442.036010      99.724328     120.569784       0.000000
    452.594823      87.825304     119.697892       0.000000
    434.320193     105.464637     121.922662       0.000000
    428.268204     113.041535     124.327945       0.000000
    425.903121     124.119511     125.848254       0.000000
    444.285804     119.255299     128.183072       0.000000
    437.448997     132.170932     129.520044       0.000000
    431.330803     164.823140     129.184390       0.000000
    424.091979     171.464865     129.689042       0.000000
    434.548672     177.227883     130.176907       0.000000
    427.061976     184.219868     129.234193       0.000000
    420.495379     190.404348     128.395531       0.000000
    422.496403     204.163338     126.152504       0.000000
    431.737201     205.077362     127.370237       0.000000
    437.701331     226.377678     125.482179       0.000000
    436.125966     235.399876     124.811463       0.000000
    436.382389     254.535002     126.989666       0.000000
    427.998561     250.474046     124.822331       0.000000
    427.051777     287.790921     119.935948       0.000000
    410.558995     276.833608     113.147650       0.000000
    410.552252     286.802358     114.207110       0.000000
    417.917564     292.150273     115.806621       0.000000
    428.044874     297.102051     120.025509       0.000000
    440.527380     321.293097     124.218564       0.000000
    433.413649     337.608809     127.318315       0.000000
    430.661396     329.733377     123.792951       0.000000
    430.234065     346.285412     128.167279       0.000000
    440.896671     342.720311     127.889712       0.000000
    433.356761     370.169050     132.864378       0.000000
    443.193613     387.351493     131.394267       0.000000
    427.459656     382.556714     133.389230       0.000000
    433.193355     403.426576     131.112074       0.000000
    443.374418     423.451914     128.654727       0.000000
    435.100049     427.661292     129.564125       0.000000
    415.562977     429.966896     130.409803       0.000000
    424.059739     437.785355     130.120260       0.000000
    420.035204     454.770222     129.147252       0.000000
    413.661847     461.159102     129.639469       0.000000
    424.180873     463.212181     129.042387       0.000000
    435.520762     468.634503     127.429840       0.000000
    429.729802     481.056847     126.537200       0.000000
    430.000000     500.000000     127.646333       0.000000
    440.000000      10.000000     126.973750       0.000000
    435.119961      17.727558     127.235403       0.000000
    444.492477      20.623947     128.243559       0.000000
    429.625264      37.544289     124.264294       0.000000
    448.951778      49.889444     124.484290       0.000000
    449.959898      63.571315     120.764962       0.000000
    443.987703      70.431083     120.666243       0.000000
    446.596259      79.264914     120.228301       0.000000
    458.271854      78.986214     118.614392       0.000000
    443.475969      90.769128     120.729053       0.000000
    460.277937     111.895804     125.491992       0.000000
    447.702882     110.323773     124.683017       0.000000
    437.190688     113.825600     126.361347       0.000000
    447.739807     157.600987     130.852549       0.000000
    446.480775     148.628873     131.415620       0.000000
    448.161567     176.892132     130.136973       0.000000
    427.599300     156.431108     128.865924       0.000000
    443.061688     185.835765     128.953120       0.000000
    434.922328     189.644554     128.296223       0.000000
    440.643673     207.059743     126.254217       0.000000
    437.053285     216.968039     125.902682       0.000000
    447.883166     215.040628     125.627239       0.000000
    449.627907     226.008037     126.721140       0.000000
    446.008040     252.619971     130.860088       0.000000
    430.980727     265.937059     121.858237       0.000000
    424.731486     259.266011     120.808794       0.000000
    434.378134     283.865864     123.790382       0.000000
    439.013858     291.899694     125.467670       0.000000
    418.609352     283.207898     116.592814       0.000000
    437.160781     301.946278     122.151064       0.000000
    429.265842     309.795233     121.305301       0.000000
    438.294347     311.095193     123.181564       0.000000
    448.376721     336.882346     126.069855       0.000000
    453.514945     346.522027     126.679674       0.000000
    448.017935     358.739845     128.535840       0.000000
    466.037335     359.898442     125.656971       0.000000
    439.500141     351.730435     128.320684       0.000000
    449.960677     397.141067     127.889953       0.000000
    440.025408     396.164413     131.692861       0.000000
    462.058900     385.358764     126.150406       0.000000
    435.712393     413.070290     130.106463       0.000000
    446.823556     414.949135     128.013678       0.000000
    450.009380     435.940102     125.167989       0.000000
    427.482131     448.458691     130.164211       0.000000
    436.143342     455.175550     128.930554       0.000000
    447.830580     453.112280     125.711992       0.000000
    443.005290     463.038022     126.831412       0.000000
    445.906587     473.799196     125.747338       0.000000
    433.522093     489.369119     127.182853       0.000000
    440.000000     500.000000     127.675669       0.000000
    450.000000      10.000000     126.205435       0.000000
    453.913729      20.033107     126.653304       0.000000
    450.583668      29.190452     126.845288       0.000000
    441.032330      29.729365     127.461323       0.000000
    437.107578      48.200400     124.292864       0.000000
    456.028082      56.114154     121.021482       0.000000
    456.038044      70.182318     118.659105       0.000000
    443.253625      57.678981     123.764373       0.000000
    459.010962      94.552820     120.394528       0.000000
    451.243600     100.214305     120.960591       0.000000
    462.337519     120.082662     129.429282       0.000000
    453.539036     117.847961     127.354330       0.000000
    445.667855     128.115357     129.993848       0.000000
    445.567516     137.875428     131.524005       0.000000
    456.896058     154.646537     132.454526       0.000000
    438.052078     158.289602     130.185487       0.000000
    441.195736     170.976765     131.272077       0.000000
    451.794679     188.075215     128.955039       0.000000
    428.359385     196.493836     127.798927       0.000000
    449.745762     197.583492     128.268799       0.000000
    457.456723     218.198667     127.463173       0.000000
    467.482276     214.932038     129.386626       0.000000
    455.849328     235.643102     128.702340       0.000000
    449.344592     244.101803     129.676588       0.000000
    446.448615     235.582458     126.471915       0.000000
    444.516501     273.371499     128.432171       0.000000
    435.070109     274.696122     123.623900       0.000000
    450.966386     291.773362     128.645906       0.000000
    461.587933     288.243194     131.686325       0.000000
    454.153315     303.340527     127.454178       0.000000
    445.758553     298.973943     126.184949       0.000000
    446.380558     308.453076     126.328724       0.000000
    440.953285     330.781094     125.183393       0.000000
    452.578397     327.780013     126.138972       0.000000
    457.967828     337.241592     125.951874       0.000000
    474.030679     363.713246     123.448851       0.000000
    464.704420     372.025371     125.443784       0.000000
    435.230237     361.306483     130.481174       0.000000
    436.406050     381.183039     132.092090       0.000000
    446.335031     376.815698     129.558375       0.000000
    442.445460     405.010176     128.337924       0.000000
    452.739017     408.389352     124.964041       0.000000
    444.262673     444.584704     126.035668       0.000000
    441.540115     434.946288     128.186052       0.000000
    435.031891     440.988193     129.746266       0.000000
    457.125753     456.887109     124.515047       0.000000
    454.159291     465.804702     125.663539       0.000000
    462.309921     468.996882     123.031240       0.000000
    438.833054     480.470051     127.390919       0.000000
    450.000000     500.000000     126.182331       0.000000
    460.000000      10.000000     124.536173       0.000000
    463.130868      18.893238     125.357122       0.000000
    465.581810      37.433991     124.505969       0.000000
    442.833876      38.642583     126.392173       0.000000
    455.655888      42.581600     123.969400       0.000000
    470.980549      45.595960     121.596810       0.000000
    468.208810      56.896614     117.935021       0.000000
    466.869824      74.953041     117.455736       0.000000
    464.867303      87.576034     118.780470       0.000000
    459.824834     103.629900     121.491689       0.000000
    476.474054     117.477965     127.927790       0.000000
    460.184069     133.187477     132.720106       0.000000
    471.856939     128.845371     131.284519       0.000000
    455.167851     142.319072     132.039441       0.000000
    472.010777     159.756289     130.156488       0.000000
    470.515841     179.749468     127.045827       0.000000
    460.170918     176.215079     128.303013       0.000000
    462.255356     187.085985     126.785413       0.000000
    439.731985     197.653339     127.850490       0.000000
    451.489615     206.694691     126.805785       0.000000
    460.653089     209.313374     127.409076       0.000000
    462.126253     227.807647     129.879810       0.000000
    457.036782     248.773842     131.323041       0.000000
    441.515471     261.895115     129.325475       0.000000
    450.143314     265.590610     132.546989       0.000000
    468.082667     258.008614     135.924046       0.000000
    445.103060     284.798045     128.993151       0.000000
    460.249825     269.375517     135.128377       0.000000
    452.334003     279.640412     132.302005       0.000000
    471.263088     296.150924     130.822819       0.000000
    461.050998     297.031233     129.406193       0.000000
    448.991158     319.488850     126.827915       0.000000
    457.320736     311.680005     129.579350       0.000000
    458.626168     320.530419     127.508113       0.000000
    465.015299     330.085825     124.562217       0.000000
    457.380329     357.699383     127.152539       0.000000
    464.117872     346.896533     125.014493       0.000000
    442.329804     367.062938     130.785668       0.000000
    457.667020     377.133848     127.809875       0.000000
    470.977370     391.224214     124.866811       0.000000
    452.041685     387.352864     129.388664       0.000000
    461.079354     396.448157     126.670817       0.000000
    453.857773     421.798981     124.967213       0.000000
    454.233782     443.778579     121.828224       0.000000
    463.149337     448.541476     120.372782       0.000000
    473.273897     452.924738     120.169472       0.000000
    465.542491     459.450648     121.782657       0.000000
    454.689114     475.982668     124.266423       0.000000
    448.265702     488.991392     126.506362       0.000000
    460.000000     500.000000     122.665825       0.000000
    470.000000      10.000000     122.863003       0.000000
    475.275442      18.622340     122.357652       0.000000
    460.704942      29.464121     125.594091       0.000000
    461.941246      48.817122     121.591579       0.000000
    474.603161      34.278339     123.110669       0.000000
    472.627851      66.716483     115.129979       0.000000
    481.525103      74.407140     116.971868       0.000000
    462.584085      63.987855     118.348651       0.000000
    473.657927      80.884778     117.786752       0.000000
    470.589126     100.843878     122.254380       0.000000
    469.102093     109.476833     124.659641       0.000000
    454.979614     125.830802     131.612390       0.000000
    468.404683     141.457411     133.559672       0.000000
    472.698221     169.671235     127.406541       0.000000
    450.601925     166.351763     131.680328       0.000000
    461.794044     164.946660     130.343714       0.000000
    472.998259     188.414020     127.109306       0.000000
    471.059315     197.189328     126.153337       0.000000
    461.041192     197.163817     127.138660       0.000000
