    233.493227      62.447139     115.160841       0.000000
    215.882193      69.500467     119.746514       0.000000
    213.708311      81.984348     122.556237       0.000000
    219.397919      90.176711     123.219972       0.000000
    222.074223     109.111891     127.957147       0.000000
    217.034241     118.501580     129.230283       0.000000
    213.373292     131.374868     130.749800       0.000000
    222.121157     133.070415     128.919440       0.000000
    226.005665     146.767168     127.990416       0.000000
    206.952887     151.149048     130.416869       0.000000
    199.213450     170.317002     129.232556       0.000000
    222.025336     184.826353     118.880443       0.000000
    232.310279     180.120900     116.548578       0.000000
    234.153135     202.027517     109.760735       0.000000
    218.157303     219.151854     111.795213       0.000000
    212.660131     211.682942     111.702208       0.000000
    217.997324     228.770181     115.863931       0.000000
    215.927790     238.102359     118.510552       0.000000
    216.741228     254.220654     122.918982       0.000000
    231.100933     263.633389     126.101733       0.000000
    196.765742     260.074806     125.757945       0.000000
    208.028491     281.670034     129.634551       0.000000
    223.490385     275.418220     127.812829       0.000000
    212.452338     308.841931     123.838598       0.000000
    218.918625     301.220764     126.478103       0.000000
    233.474481     321.914991     122.329952       0.000000
    214.923943     318.221157     122.578176       0.000000
    227.297526     329.275821     120.511196       0.000000
    221.993690     336.839224     119.757922       0.000000
    212.435783     356.247116     124.192689       0.000000
    206.945580     369.152435     127.333848       0.000000
    224.560785     385.013967     123.703705       0.000000
    225.749894     402.536342     122.857423       0.000000
    218.607748     409.168862     120.895103       0.000000
    207.605830     421.604609     117.342065       0.000000
    205.793646     433.998923     117.707041       0.000000
    214.076259     427.949507     116.377667       0.000000
    223.802669     437.842551     116.636468       0.000000
    214.709846     437.739919     117.131847       0.000000
    222.753341     456.906291     117.669311       0.000000
    215.650726     472.884944     118.771852       0.000000
    224.712310     480.669721     119.919843       0.000000
    219.477607     490.389018     123.949522       0.000000
    220.000000     500.000000     126.833594       0.000000
    230.000000      10.000000     123.342797       0.000000
    236.631802      18.490915     120.450465       0.000000
    232.335301      35.143011     117.914549       0.000000
    220.373714      48.692939     117.905082       0.000000
    228.471912      54.754336     116.308533       0.000000
    217.908865      59.234082     117.406327       0.000000
    246.110251      64.905864     116.436600       0.000000
    222.852972      77.785715     119.036140       0.000000
    232.990064      73.074441     116.221661       0.000000
    224.419109     100.433580     126.624577       0.000000
    234.724897     106.245661     126.277805       0.000000
    234.414136     126.818991     129.638083       0.000000
    225.812484     124.198772     128.208083       0.000000
    231.462366     135.602746     128.717487       0.000000
    218.161496     153.679482     128.702747       0.000000
    227.830783     156.708060     125.713093       0.000000
    228.973887     167.825030     121.732182       0.000000
    247.516234     167.618130     118.116344       0.000000
    251.694054     192.943144     112.765684       0.000000
    240.151109     183.639038     113.257823       0.000000
    239.853518     209.255244     108.917535       0.000000
    238.791603     221.377363     111.133871       0.000000
    225.303211     247.357069     120.416358       0.000000
    225.668122     256.450073     121.830139       0.000000
    234.189913     253.281883     123.073085       0.000000
    242.469454     262.966017     128.262064       0.000000
    233.130485     273.018270     127.567743       0.000000
    212.937977     262.313369     125.146084       0.000000
    234.058965     290.946994     127.758748       0.000000
    228.141599     300.406352     126.170630       0.000000
    223.866126     309.787668     123.165253       0.000000
    249.426426     332.636997     118.465089       0.000000
    237.617859     330.096503     119.745080       0.000000
    231.681298     337.484927     119.070330       0.000000
    215.460787     366.540395     123.585387       0.000000
    244.244186     362.791464     121.392370       0.000000
    233.680529     364.819835     122.092259       0.000000
    218.587988     377.640037     123.575888       0.000000
    229.030896     376.932604     122.363236       0.000000
    240.328728     390.571608     124.673388       0.000000
    236.454774     419.415214     123.492976       0.000000
    245.262340     416.744253     125.834047       0.000000
    228.495472     423.433580     119.562969       0.000000
    233.616184     433.783195     118.426543       0.000000
    228.462271     450.000464     115.975667       0.000000
    247.044300     459.396547     117.233570       0.000000
    225.166192     466.753632     117.819582       0.000000
    237.429711     482.025688     118.803615       0.000000
    228.581091     490.328509     122.113109       0.000000
    230.000000     500.000000     123.813496       0.000000
    240.000000      10.000000     121.875593       0.000000
    231.533543      26.032612     120.825704       0.000000
    232.256809      45.319813     116.065543       0.000000
    252.040806      44.382973     116.950992       0.000000
    240.754448      41.836922     116.212650       0.000000
    243.688506      55.651507     115.632436       0.000000
    258.828381      65.215074     117.694670       0.000000
    243.816621      75.613505     117.342858       0.000000
    247.857310      88.951422     120.939389       0.000000
    239.674407      84.697413     119.433208       0.000000
    230.804846      91.419977     122.833834       0.000000
    230.048192     114.332897     127.339283       0.000000
    234.921521     144.340179     128.213881       0.000000
    251.256193     141.742866     129.626768       0.000000
    245.142954     149.539051     127.899476       0.000000
    236.897030     153.201893     126.539274       0.000000
    241.241325     173.278246     114.769286       0.000000
    250.507814     181.722325     114.000302       0.000000
    268.473264     183.569538     116.544078       0.000000
    241.074545     195.044163     112.108492       0.000000
    231.063158     212.202596     110.049223       0.000000
    226.123731     224.192991     112.993089       0.000000
    225.515672     236.060178     116.860988       0.000000
    236.309262     241.849075     120.008559       0.000000
    242.819789     248.560741     123.938679       0.000000
    253.584917     269.029001     128.310174       0.000000
    243.218055     273.625216     129.333602       0.000000
    221.794195     265.001530     126.546543       0.000000
    224.939946     290.891300     128.284414       0.000000
    233.146622     308.327674     123.789621       0.000000
    238.380191     300.764619     125.798317       0.000000
    241.093585     314.363412     122.629992       0.000000
    234.187668     347.763139     119.526085       0.000000
    223.697784     348.908585     119.901380       0.000000
    224.235487     359.186678     120.395730       0.000000
    258.774113     367.069408     124.486714       0.000000
    264.760067     360.103849     124.495936       0.000000
    224.076653     368.878383     121.467138       0.000000
    237.002039     381.624539     123.286875       0.000000
    227.291019     412.051575     120.492390       0.000000
    235.685508     404.810478     125.115075       0.000000
    254.256338     415.884058     128.605295       0.000000
    243.010483     431.264942     120.960618       0.000000
    235.375798     443.474464     116.862200       0.000000
    234.629285     460.143311     117.312041       0.000000
    239.923505     452.334127     117.496921       0.000000
    230.638105     473.799268     119.829060       0.000000
    246.832087     481.772465     120.121202       0.000000
    241.261597     490.388490     121.315578       0.000000
    240.000000     500.000000     122.228822       0.000000
    250.000000      10.000000     120.484961       0.000000
    245.846925      20.441708     118.218105       0.000000
    257.021950      26.759982     117.491126       0.000000
    243.352477      29.179840     118.223522       0.000000
    252.579804      72.550368     117.769240       0.000000
    254.890412      53.104311     117.841555       0.000000
    265.198575      76.465740     119.881350       0.000000
    257.793314      96.253150     123.824560       0.000000
    268.037898      94.214399     127.019997       0.000000
    239.056250      98.394634     124.094356       0.000000
    244.053875     110.994241     126.296088       0.000000
    242.424070     136.628574     128.702244       0.000000
    243.490130     127.254679     129.183254       0.000000
    260.761608     134.756996     131.741753       0.000000
    254.713212     150.030900     127.026596       0.000000
    247.914526     158.336475     122.067740       0.000000
    237.999211     164.742905     120.746229       0.000000
    259.473942     160.819740     121.653536       0.000000
    260.764218     178.891150     116.455707       0.000000
    261.524765     191.684956     112.872856       0.000000
    251.631578     202.229103     111.056117       0.000000
    248.195776     214.498122     111.229189       0.000000
    237.391145     233.656859     116.007572       0.000000
    245.965213     238.514973     119.323680       0.000000
    248.758165     255.531501     126.285501       0.000000
    261.959893     263.513351     128.072401       0.000000
    240.780950     283.950762     128.434931       0.000000
    230.313329     282.629584     127.613209       0.000000
    244.944707     293.377569     127.560469       0.000000
    245.776710     306.531637     124.614152       0.000000
    255.413914     303.412913     123.224430       0.000000
    252.500009     313.617686     121.811198       0.000000
    258.927937     331.958847     118.963665       0.000000
    243.397719     339.646826     118.962982       0.000000
    236.681643     356.385614     120.680554       0.000000
    252.940913     358.171752     121.871062       0.000000
    265.804719     371.875078     128.105861       0.000000
    251.040915     371.995693     124.314360       0.000000
    256.032518     386.263237     129.692150       0.000000
    244.657747     407.738922     126.742964       0.000000
    254.973976     406.803164     129.321315       0.000000
    249.326029     425.536198     124.481213       0.000000
    243.890876     441.174604     119.921491       0.000000
    258.122528     446.300237     121.954239       0.000000
    250.060014     450.581633     119.875421       0.000000
    251.769292     468.054470     119.437337       0.000000
    242.662780     468.539776     118.654799       0.000000
    256.199040     480.410972     121.292179       0.000000
    250.525087     490.537252     120.546527       0.000000
    250.000000     500.000000     121.207018       0.000000
    260.000000      10.000000     120.036667       0.000000
    256.118778      17.679061     117.373424       0.000000
    252.068677      34.330671     117.466555       0.000000
    262.726302      47.192089     119.455162       0.000000
    264.261270      57.932854     118.446107       0.000000
    268.210413      67.636215     119.741623       0.000000
    256.575556      82.116744     120.135918       0.000000
    265.843386      86.424240     122.323248       0.000000
    257.177773     108.423277     127.059490       0.000000
    249.145529     102.780919     125.276806       0.000000
    251.559798     118.627571     128.651095       0.000000
    262.905667     116.374348     130.203414       0.000000
    239.453419     118.477106     128.583599       0.000000
    262.371978     125.757532     131.415020       0.000000
    267.761477     156.663087     124.526632       0.000000
    255.819380     171.196491     118.197225       0.000000
    264.255221     168.473909     120.498171       0.000000
    288.593490     178.340036     120.709304       0.000000
    277.641033     180.359866     118.458495       0.000000
    261.102021     202.623173     112.354688       0.000000
    257.756514     222.951545     114.599539       0.000000
    255.790812     209.947787     113.274358       0.000000
    256.296271     234.896013     119.632716       0.000000
    262.730440     242.172573     121.388149       0.000000
    271.869165     258.007392     125.944396       0.000000
    253.160247     244.731516     122.138203       0.000000
    258.754064     253.618022     124.816297       0.000000
    255.105958     291.342805     126.772224       0.000000
    260.871327     283.388359     129.216849       0.000000
    263.247893     297.487765     123.558013       0.000000
    261.151043     310.796106     121.030391       0.000000
    245.753393     323.024246     120.766559       0.000000
    266.958554     318.201509     118.932357       0.000000
    255.137313     340.664289     118.861359       0.000000
    247.922149     350.685384     121.186531       0.000000
    258.910250     349.689941     121.391184       0.000000
    258.201446     377.269988     128.756236       0.000000
    240.749798     372.591076     122.454916       0.000000
    266.171668     382.162347     132.351030       0.000000
    246.001241     382.853040     124.486156       0.000000
    246.517091     397.164745     125.534824       0.000000
    264.406698     420.621668     130.208434       0.000000
    251.126844     435.509499     122.314174       0.000000
    261.507461     437.156363     124.267122       0.000000
    268.607230     454.777017     122.927688       0.000000
    258.349518     457.206955     121.561641       0.000000
    264.168409     467.854681     120.362118       0.000000
    265.689897     479.389629     121.039040       0.000000
    262.249889     489.164478     122.394122       0.000000
    260.000000     500.000000     121.768501       0.000000
    270.000000      10.000000     123.373978       0.000000
    277.214303      18.203646     123.646094       0.000000
    267.025127      19.499632     119.176069       0.000000
    271.116581      28.659668     121.107302       0.000000
    261.411362      37.846713     119.023799       0.000000
    273.294320      47.565391     121.119482       0.000000
    275.614373      57.055957     121.013530       0.000000
    274.001892      78.140934     122.743199       0.000000
    276.038336      97.620886     130.475658       0.000000
    283.414840     101.987626     134.297648       0.000000
    273.736974     130.009063     133.849992       0.000000
    274.273977     139.609617     131.649726       0.000000
    282.170487     128.363861     136.572032       0.000000
    253.636714     127.760292     129.984956       0.000000
    289.989662     132.733990     135.278325       0.000000
    278.255560     163.822651     123.859023       0.000000
    283.583347     171.075318     122.619201       0.000000
    279.411538     200.175001     115.396450       0.000000
    270.221413     201.524540     113.390428       0.000000
    271.675897     192.111440     115.086734       0.000000
    267.014137     211.407908     113.814496       0.000000
    247.098474     227.609662     113.507285       0.000000
    267.890277     220.549642     115.189926       0.000000
    265.014479     229.140934     117.309656       0.000000
    280.870397     257.772171     124.817189       0.000000
    271.587855     268.552463     128.722092       0.000000
    270.943573     247.568499     122.505471       0.000000
    251.775392     280.005737     129.513694       0.000000
    286.951701     298.499718     120.147419       0.000000
    274.623314     295.924554     122.113380       0.000000
    290.892411     308.605437     120.923414       0.000000
    279.572040     309.883606     119.991005       0.000000
    258.800110     322.683005     119.361391       0.000000
    268.829445     346.544182     122.879103       0.000000
    275.523358     353.213393     125.113380       0.000000
    272.408147     364.367547     127.888216       0.000000
    275.637290     373.932230     131.455395       0.000000
    276.403257     382.796251     133.466272       0.000000
    280.502808     396.156173     136.130287       0.000000
    269.231064     392.338689     134.125245       0.000000
    259.502871     397.938612     129.563130       0.000000
    265.785927     409.408843     132.817586       0.000000
    273.384555     420.304390     132.283138       0.000000
    261.297018     428.447517     126.657786       0.000000
    270.620788     433.554256     127.042748       0.000000
    267.078822     444.872842     124.354022       0.000000
    277.861648     461.340836     123.617321       0.000000
    278.430188     480.915438     126.012373       0.000000
    271.954745     490.740465     124.638134       0.000000
    270.000000     500.000000     124.752317       0.000000
    280.000000      10.000000     126.433207       0.000000
    287.008683      19.500982     126.125798       0.000000
    281.617124      27.308587     123.604698       0.000000
    273.789057      37.420631     121.343067       0.000000
    283.679370      52.368050     123.847864       0.000000
    286.482917      60.949989     124.629546       0.000000
    279.282847      66.923077     122.084313       0.000000
    283.738439      76.588692     125.490201       0.000000
    274.723418      87.564273     124.577729       0.000000
    289.367706      93.030710     132.628632       0.000000
    263.451666     101.943022     127.914205       0.000000
    271.446064     118.753054     133.699270       0.000000
    289.322738     150.053713     130.570914       0.000000
    264.559742     145.179567     129.796246       0.000000
    283.946618     141.567740     131.901540       0.000000
    275.463274     151.431288     127.826207       0.000000
    273.153144     172.965521     121.323747       0.000000
    288.075599     163.500768     125.134813       0.000000
    286.975057     214.145292     115.222989       0.000000
    278.972528     210.008398     114.516927       0.000000
    288.494550     223.355264     116.286665       0.000000
    279.877064     220.021289     115.462880       0.000000
    276.365047     228.900297     117.463454       0.000000
    272.323733     237.089118     119.191478       0.000000
    281.213885     246.876991     122.464125       0.000000
    290.282171     267.960254     126.968913       0.000000
    265.198921     275.409058     131.404253       0.000000
    274.476749     279.371521     127.506363       0.000000
    269.600605     288.609776     125.292247       0.000000
    284.780547     287.267147     122.117531       0.000000
    268.818732     305.970470     121.913490       0.000000
    267.785037     328.865538     119.692595       0.000000
    279.128162     327.783250     120.334070       0.000000
    266.192582     337.880817     120.544368       0.000000
    278.397450     345.003423     122.710493       0.000000
    283.635368     367.899232     131.102937       0.000000
    284.028732     377.345749     134.136796       0.000000
    286.717980     388.149196     134.234462       0.000000
    286.268281     405.485890     135.801741       0.000000
    272.057542     402.854289     135.121943       0.000000
    277.317976     411.381051     136.063392       0.000000
    288.814609     424.587425     131.196231       0.000000
    279.141580     427.506633     129.916223       0.000000
    299.358107     437.848946     127.124665       0.000000
    278.771628     441.061651     125.510833       0.000000
    278.954241     451.877079     123.592401       0.000000
    274.390390     473.129763     123.115643       0.000000
    286.169379     472.206770     125.474836       0.000000
    281.458065     490.206555     127.240337       0.000000
    280.000000     500.000000     126.871958       0.000000
    290.000000      10.000000     127.924042       0.000000
    296.115789      18.141377     129.021488       0.000000
    292.689255      30.958200     127.346386       0.000000
    283.742862      41.468067     123.270645       0.000000
    292.777156      41.588162     125.894162       0.000000
    293.425522      52.750868     124.227420       0.000000
    295.622262      62.753091     125.548581       0.000000
    292.118641      81.815025     128.672367       0.000000
    284.136192      85.973079     128.169942       0.000000
    299.210278      91.081449     132.058196       0.000000
    294.078961     100.678245     135.814763       0.000000
    295.031041     115.387551     140.188079       0.000000
    274.283685     106.499094     132.435407       0.000000
    281.471149     117.310444     136.024896       0.000000
    300.878967     150.689614     134.055407       0.000000
    296.769021     159.293992     129.986421       0.000000
    283.191485     156.010799     126.239131       0.000000
    297.316267     182.796566     119.767886       0.000000
    280.474686     188.904630     115.757854       0.000000
    290.606678     200.658769     115.260632       0.000000
    295.661548     211.572648     115.079011       0.000000
    297.381941     231.462251     118.068988       0.000000
    306.559423     235.207723     120.583720       0.000000
    287.036988     237.988643     120.600580       0.000000
    290.455339     250.470182     122.570767       0.000000
    294.130838     259.700827     125.949211       0.000000
    280.892924     268.639872     126.554167       0.000000
    287.310945     278.065719     125.248664       0.000000
    294.328095     292.332939     123.320680       0.000000
    286.438813     317.432779     119.777135       0.000000
    295.452769     318.764901     119.820426       0.000000
    276.038697     319.076890     119.505879       0.000000
    289.480158     327.590024     120.635188       0.000000
    275.717682     336.135854     121.177744       0.000000
    288.656111     337.210992     121.707450       0.000000
    287.924579     347.262157     123.240356       0.000000
    282.707200     358.124507     128.372780       0.000000
    294.000649     367.309491     129.395228       0.000000
    291.669086     398.157400     134.624036       0.000000
    302.277566     393.360820     131.279486       0.000000
    284.413802     416.916133     133.944124       0.000000
    298.235955     426.506018     130.312515       0.000000
    285.533425     434.782097     128.267682       0.000000
    291.796464     445.882826     125.516024       0.000000
    300.819036     447.451641     125.330673       0.000000
    295.443779     454.993346     125.121693       0.000000
    286.828884     458.220019     123.836040       0.000000
    291.015457     479.247056     128.753300       0.000000
    290.828263     490.121631     128.840353       0.000000
    290.000000     500.000000     127.701691       0.000000
    300.000000      10.000000     130.254260       0.000000
    301.585669      32.891497     130.560873       0.000000
    302.307154      44.677291     128.263957       0.000000
    311.561626      41.931723     130.638755       0.000000
    306.647419      62.185162     124.641253       0.000000
    311.230043      70.103720     125.317039       0.000000
    291.644924      72.411716     126.680778       0.000000
    301.143981      70.387173     126.680425       0.000000
    304.004377      99.502736     135.680757       0.000000
    322.079993      95.335662     129.844095       0.000000
    308.384167      91.686536     132.162283       0.000000
    303.080725     111.312617     138.034162       0.000000
    286.441454     109.645484     138.247194       0.000000
    299.971111     131.897086     136.596600       0.000000
    309.031458     156.059147     134.292853       0.000000
    304.126864     165.446706     130.193427       0.000000
    296.538471     168.542010     126.116964       0.000000
    302.829443     176.144905     123.113535       0.000000
    293.650309     190.353509     116.131174       0.000000
    302.404235     204.056340     115.492749       0.000000
    309.504590     214.619890     117.112863       0.000000
    298.664440     220.186393     115.745342       0.000000
    305.376886     226.423456     118.487010       0.000000
    295.403774     241.607783     120.914174       0.000000
    299.931997     252.139094     123.622219       0.000000
    314.639345     264.527384     127.773727       0.000000
    301.926090     266.799136     127.016729       0.000000
    297.316771     274.748892     125.608237       0.000000
    305.128974     294.815168     123.919664       0.000000
    299.698731     304.357066     121.243958       0.000000
    308.971297     303.605963     122.092007       0.000000
    303.016396     323.871494     118.964886       0.000000
    308.523005     337.301274     119.967623       0.000000
    299.091217     332.488307     120.189952       0.000000
    297.733488     344.112006     121.327346       0.000000
    293.541340     356.024050     125.769577       0.000000
    302.424345     364.613460     124.149986       0.000000
    293.604496     376.248893     132.227388       0.000000
    303.505645     382.763560     128.749136       0.000000
    310.006108     390.714332     124.922545       0.000000
    295.829603     407.170227     133.992836       0.000000
    294.238742     417.121503     132.201245       0.000000
    308.242444     434.449741     125.483529       0.000000
    309.947874     444.668527     124.359997       0.000000
    318.972785     452.325400     124.199790       0.000000
    293.772227     465.007559     125.502445       0.000000
    297.859163     472.983091     127.999613       0.000000
    308.825688     491.017119     131.488155       0.000000
    305.012762     479.018032     129.444973       0.000000
    300.000000     500.000000     129.979747       0.000000
    310.000000      10.000000     131.960506       0.000000
    303.614923      23.134465     130.353064       0.000000
    312.062356      32.890532     131.841087       0.000000
    303.602693      53.423242     125.494951       0.000000
    331.046995      64.929285     125.928197       0.000000
    328.088828      56.187599     127.373238       0.000000
    315.918507      78.296463     124.970638       0.000000
    321.888522      69.384965     124.420743       0.000000
    303.449288      82.311455     128.426209       0.000000
    327.310802      86.862246     126.675066       0.000000
    302.059595     121.497025     139.291483       0.000000
    289.526900     122.283297     138.392747       0.000000
    303.362320     141.341928     136.370766       0.000000
    294.624299     142.794402     133.167219       0.000000
    311.041947     147.347325     137.859887       0.000000
    318.616079     155.554692     135.715552       0.000000
    312.085194     175.586833     123.267127       0.000000
    321.657062     176.569627     122.349475       0.000000
    302.478460     193.177512     115.403079       0.000000
    312.463996     195.739755     115.510007       0.000000
    314.514733     206.675572     116.283246       0.000000
    316.124962     222.115911     119.410614       0.000000
    324.376604     225.645054     121.629930       0.000000
    315.007990     231.185477     122.315848       0.000000
    306.595884     258.583308     126.090490       0.000000
    306.563496     277.024861     127.102888       0.000000
    309.834690     285.640127     125.862103       0.000000
    298.564229     284.010885     125.335068       0.000000
    319.197764     285.956488     124.404099       0.000000
    325.282323     293.678743     123.187014       0.000000
    314.098675     293.925352     124.064333       0.000000
    303.048307     312.837032     118.969451       0.000000
    312.446448     322.244768     117.820525       0.000000
    315.227262     330.646677     119.491356       0.000000
    319.784349     353.575539     116.660373       0.000000
    317.531483     339.200024     117.759374       0.000000
    312.388483     347.697833     119.260744       0.000000
    301.799534     373.449701     126.997417       0.000000
    313.339381     382.702741     122.472963       0.000000
    296.316121     386.014484     133.095933       0.000000
    304.961677     406.681046     128.877287       0.000000
    302.964483     416.434230     129.881419       0.000000
    318.987374     418.972174     122.742562       0.000000
    321.198584     469.784290     127.213757       0.000000
    314.656674     463.468015     124.746755       0.000000
    309.234912     454.578980     125.321644       0.000000
    304.070292     462.504324     126.562048       0.000000
    314.247254     482.323595     130.316824       0.000000
    299.675413     489.350450     130.354576       0.000000
    310.000000     500.000000     131.227878       0.000000
    320.000000      10.000000     132.002931       0.000000
    315.139210      19.186941     130.600857       0.000000
    320.276687      27.227626     132.314564       0.000000
    314.112989      53.045959     126.380201       0.000000
    320.131255      60.097935     125.357238       0.000000
    336.356443      73.253970     125.852348       0.000000
    344.746762      66.837492     124.727374       0.000000
    325.631583      77.750009     124.368155       0.000000
    317.702066      87.481878     128.124948       0.000000
    331.868873     105.030558     129.535244       0.000000
    321.410439     104.084845     132.480890       0.000000
    312.326185     112.055699     137.741902       0.000000
    310.644043     125.572020     138.501108       0.000000
    312.176245     135.995824     137.612143       0.000000
    321.112764     131.863761     137.542892       0.000000
    330.303593     170.691951     125.789871       0.000000
    313.952836     163.896288     130.818403       0.000000
    318.781415     184.781853     119.150160       0.000000
    309.702564     183.889217     119.163494       0.000000
    323.223591     204.194792     116.368998       0.000000
    321.431112     214.698057     118.287926       0.000000
    332.899916     221.108875     120.023935       0.000000
    314.452121     242.729756     124.578963       0.000000
    305.525580     245.060982     122.791472       0.000000
    323.974295     256.039028     124.241439       0.000000
    314.907789     252.490594     124.545533       0.000000
    335.771621     263.609848     125.481541       0.000000
    316.040534     276.026994     126.411669       0.000000
    328.889797     283.568653     123.165956       0.000000
    318.517018     302.170643     122.339921       0.000000
    313.086334     312.197267     119.046508       0.000000
    333.748249     332.874560     116.253699       0.000000
    326.270878     341.919066     115.701300       0.000000
    342.590855     330.183113     115.937631       0.000000
    328.884416     350.540663     117.277802       0.000000
    313.238567     361.851760     117.470508       0.000000
    305.222611     356.731451     120.522166       0.000000
    309.946913     371.289598     122.213415       0.000000
    318.025024     393.846929     120.971666       0.000000
    320.273362     403.194823     121.119120       0.000000
    310.079047     424.702639     125.145956       0.000000
    316.907908     429.699165     121.926420       0.000000
    327.421453     446.938148     123.037117       0.000000
    325.745841     427.388125     120.672127       0.000000
    323.501340     460.451121     125.517869       0.000000
    350.204712     448.171950     121.240670       0.000000
    308.409944     470.790050     127.314366       0.000000
    324.074337     479.254534     128.991421       0.000000
    321.567156     489.599614     130.510938       0.000000
    320.000000     500.000000     131.312426       0.000000
    330.000000      10.000000     131.653180       0.000000
    336.225602      18.938083     131.244769       0.000000
    325.702637      18.596462     131.404684       0.000000
    330.350552      30.283629     130.715148       0.000000
    321.828471      38.384896     132.776552       0.000000
    346.922865      56.285419     123.432328       0.000000
    335.770035      50.060571     126.820719       0.000000
    330.857438      95.330016     127.741884       0.000000
    352.942255      98.386439     122.586614       0.000000
    323.384211     113.524400     134.820679       0.000000
    335.745767     116.218951     132.525827       0.000000
    339.831949     101.111121     125.645989       0.000000
    318.970733     122.165294     137.365488       0.000000
    332.446305     130.661906     135.005079       0.000000
    321.929416     140.815788     136.362589       0.000000
    321.434537     168.863818     127.598185       0.000000
    325.807604     161.977208     132.311768       0.000000
    329.209830     184.629730     119.172399       0.000000
    334.838282     192.855298     118.643906       0.000000
    333.014028     202.333138     117.529024       0.000000
    330.044745     210.866477     117.756221       0.000000
    324.004972     237.559163     125.625703       0.000000
    333.338584     243.079777     126.697528       0.000000
    323.190080     246.962141     125.979154       0.000000
    335.520483     252.361655     126.432428       0.000000
    326.460435     264.699402     124.679435       0.000000
    335.792221     272.600831     124.404335       0.000000
    325.236251     273.617682     125.117523       0.000000
    340.080011     284.566408     122.064034       0.000000
    335.684876     297.316034     121.333590       0.000000
    324.180188     331.896062     117.201054       0.000000
    323.720696     310.930640     120.808231       0.000000
    324.350773     321.468082     118.505545       0.000000
    335.415758     343.133295     116.012342       0.000000
    343.511192     349.517448     114.162255       0.000000
    331.320068     372.767841     117.109788       0.000000
    325.589979     365.234017     118.030110       0.000000
    320.582434     374.869366     118.782249       0.000000
    322.445973     384.657920     119.727916       0.000000
    327.794313     396.836122     117.734095       0.000000
    311.052253     400.453713     124.448604       0.000000
    324.600813     411.262973     120.173171       0.000000
    335.547634     428.962437     120.176634       0.000000
    319.665259     440.022496     122.103268       0.000000
    340.797659     448.432695     122.197213       0.000000
    337.135171     467.283463     123.790765       0.000000
    331.359869     472.907699     128.003504       0.000000
    331.184400     487.828850     131.994743       0.000000
    340.540075     490.410612     130.364002       0.000000
    330.000000     500.000000     131.706303       0.000000
    340.000000      10.000000     131.488483       0.000000
    345.482719      19.449159     130.926997       0.000000
    339.558030      28.682580     129.968188       0.000000
    342.982394      38.291548     127.233736       0.000000
    331.402517      42.213668     129.599515       0.000000
    338.625365      59.974350     125.998492       0.000000
    322.916975      47.739134     130.397011       0.000000
    339.202053      82.114340     125.022377       0.000000
    341.860096      91.359737     125.143456       0.000000
    341.508499     110.788063     127.036628       0.000000
    313.122109     100.341000     133.772206       0.000000
    340.798951     124.319204     130.964639       0.000000
    329.329113     121.447131     136.279760       0.000000
    349.134598     130.009944     127.324714       0.000000
    330.900630     139.645571     134.830765       0.000000
    340.711805     174.947006     122.455092       0.000000
    347.346677     180.634792     119.389491       0.000000
    352.347321     188.046433     118.342074       0.000000
    324.301095     192.464647     118.093237       0.000000
    339.028271     184.538129     118.530337       0.000000
    344.719455     207.138302     119.229874       0.000000
    336.421760     232.086989     124.683500       0.000000
    345.925564     230.206243     126.663050       0.000000
    346.340901     248.111938     125.978040       0.000000
    343.047540     239.269116     126.229780       0.000000
    346.043304     261.193777     127.121707       0.000000
    353.502312     254.337642     127.846811       0.000000
    346.596485     271.732014     124.999440       0.000000
    344.634550     294.794119     119.716581       0.000000
    333.115873     311.941307     119.349174       0.000000
    336.076149     323.985169     116.332463       0.000000
    349.110010     324.011434     117.609833       0.000000
    346.237655     340.795115     114.639739       0.000000
    356.425920     343.993160     113.891166       0.000000
    348.806809     363.671480     114.080800       0.000000
    338.633334     358.985000     115.455784       0.000000
    339.828591     368.201802     115.554031       0.000000
    346.083913     386.979638     115.935508       0.000000
    331.755346     382.316292     118.567333       0.000000
    338.702050     405.573557     117.758711       0.000000
    314.991744     410.318620     123.888454       0.000000
    331.899892     417.287139     119.144361       0.000000
    340.344427     415.544444     116.056113       0.000000
    328.648309     436.010430     120.923884       0.000000
    358.486787     434.584117     116.901686       0.000000
    339.893532     438.567734     120.948519       0.000000
    331.562104     455.940080     124.168431       0.000000
    343.015670     474.382692     125.342715       0.000000
    349.890710     490.121749     128.579038       0.000000
    340.000000     500.000000     130.753673       0.000000
    350.000000      10.000000     131.506511       0.000000
    354.891700      19.954214     130.355373       0.000000
    349.310335      27.450350     128.658110       0.000000
    356.315555      39.814312     124.329391       0.000000
    348.917785      45.022021     124.179698       0.000000
    353.839940      62.295781     122.391262       0.000000
    350.753999      74.519399     123.232628       0.000000
    349.589703      85.281669     123.363884       0.000000
    361.122026     102.447053     120.757768       0.000000
    357.391072     113.177709     123.065629       0.000000
    348.236840     117.236359     125.081791       0.000000
    356.061427     122.699853     124.773383       0.000000
    338.520352     135.849308     130.786852       0.000000
    340.088137     146.349265     131.877501       0.000000
    338.266183     164.591661     127.572530       0.000000
    350.058653     150.232099     127.773959       0.000000
    344.531879     157.865994     127.129197       0.000000
    352.143799     168.989334     123.035289       0.000000
    350.315218     200.018567     119.980905       0.000000
    344.275220     192.046175     118.208758       0.000000
    338.689478     213.963370     118.966822       0.000000
    357.810769     205.128536     123.167057       0.000000
    341.802129     222.702188     123.340526       0.000000
    353.865722     240.984809     126.392339       0.000000
    365.431223     239.692680     127.462983       0.000000
    360.226587     247.855240     128.010095       0.000000
    355.233806     265.969770     124.874978       0.000000
    366.103486     266.374962     122.759891       0.000000
    351.519212     285.234032     120.179410       0.000000
    327.698722     302.483072     122.661427       0.000000
    341.837818     316.753467     117.199663       0.000000
    364.342459     313.078183     116.471867       0.000000
    353.571136     314.213595     116.496665       0.000000
    352.223138     354.226124     113.901629       0.000000
    358.131403     364.458839     113.295456       0.000000
    350.669204     373.111798     115.374602       0.000000
    341.016433     378.124312     116.278851       0.000000
    354.190440     381.476051     115.939012       0.000000
    335.960004     391.489842     116.635312       0.000000
    358.743163     402.958324     115.652343       0.000000
    350.384454     396.406138     117.230900       0.000000
    350.093869     405.929687     116.886971       0.000000
    347.319428     427.087420     116.999303       0.000000
    350.640572     439.086708     119.738253       0.000000
    352.734255     458.146472     122.665595       0.000000
    341.864143     459.731535     122.349848       0.000000
    350.175905     468.025252     124.050592       0.000000
    337.465896     481.021720     129.811693       0.000000
    363.690458     491.980217     127.905302       0.000000
    350.000000     500.000000     130.006479       0.000000
    360.000000      10.000000     130.727481       0.000000
    364.390257      21.134216     128.284419       0.000000
    365.699848      35.468669     123.731934       0.000000
    357.030863      51.243829     123.997765       0.000000
    371.937718      52.427187     121.404653       0.000000
    364.611047      58.419118     122.809610       0.000000
    360.454518      68.874721     123.706672       0.000000
    369.196103      84.647534     121.683439       0.000000
    359.008725      88.655710     121.395149       0.000000
    369.971153     105.794982     119.287939       0.000000
    373.987433     118.925301     121.254307       0.000000
    358.302958     131.911781     125.468657       0.000000
    335.247279     155.787128     130.329949       0.000000
    330.257241     149.103691     133.900973       0.000000
    357.942139     144.215857     125.397961       0.000000
    363.769560     152.176236     123.952696       0.000000
    355.263245     157.293807     125.471325       0.000000
    356.935654     177.219114     121.734606       0.000000
    359.240401     194.568340     120.959203       0.000000
    367.585064     197.487652     124.113604       0.000000
    367.469325     207.391363     124.404154       0.000000
    351.215966     213.081659     122.581131       0.000000
    352.053167     222.779570     124.716941       0.000000
    375.328972     240.663012     127.017813       0.000000
    368.976467     249.905426     126.886725       0.000000
    361.385776     258.616770     125.780434       0.000000
    376.100102     272.283901     118.359010       0.000000
    362.227174     288.114958     117.873631       0.000000
    348.947844     305.778850     117.659478       0.000000
    339.509747     305.417813     119.663269       0.000000
    361.808847     303.545089     116.546847       0.000000
    364.536027     331.370088     116.384905       0.000000
    354.713629     334.383265     115.094703       0.000000
    373.910146     339.162464     115.712088       0.000000
    365.598807     343.520454     114.507703       0.000000
    362.108537     355.787176     113.525964       0.000000
    360.182725     373.252974     115.649427       0.000000
    363.167037     383.244778     116.234083       0.000000
    370.182846     393.724775     117.527141       0.000000
    363.295965     412.315617     115.506991       0.000000
    369.496708     404.806524     117.073723       0.000000
    352.056212     419.421104     116.224770       0.000000
    369.723050     437.295385     120.636425       0.000000
    360.838570     443.798264     120.737829       0.000000
    360.847093     453.448082     121.862858       0.000000
    357.388033     474.129044     124.323425       0.000000
    358.710064     482.885758     126.618471       0.000000
    349.319321     481.054564     127.142164       0.000000
    372.539854     485.841377     125.827139       0.000000
    360.000000     500.000000     129.798196       0.000000
    370.000000      10.000000     127.310246       0.000000
    376.078651      20.557105     126.502410       0.000000
    358.268225      29.942021     126.460802       0.000000
    364.716009      44.721937     123.072828       0.000000
    372.947459      62.750248     121.619987       0.000000
    361.803326      78.120911     123.301876       0.000000
    378.909223      76.852609     121.099390       0.000000
    395.943690      85.091898     117.650071       0.000000
    368.571019      94.704965     120.152661       0.000000
    350.494185     107.331131     124.236796       0.000000
    378.357288     127.644399     121.364512       0.000000
    364.424241     119.372571     122.497096       0.000000
    368.539236     129.137681     123.798955       0.000000
    389.533491     129.569634     122.108407       0.000000
    349.208005     140.418337     127.139671       0.000000
    368.657304     139.596871     123.951335       0.000000
    372.348762     148.729586     123.204869       0.000000
    365.480547     173.306621     123.886796       0.000000
    366.022053     184.055905     124.184818       0.000000
    374.704610     214.969409     127.353372       0.000000
    359.569406     216.458274     125.086450       0.000000
    366.968226     221.786717     126.587703       0.000000
    359.547795     230.164927     126.624209       0.000000
    368.754222     230.928624     127.290064       0.000000
    378.107833     251.551033     125.315198       0.000000
    374.799215     260.387053     122.269382       0.000000
    386.247611     257.972348     120.809888       0.000000
    357.346981     275.940449     121.630171       0.000000
    368.071453     296.984897     115.447551       0.000000
    355.290004     294.083990     117.901240       0.000000
    373.890237     308.377225     116.438949       0.000000
    388.289297     320.849978     115.674329       0.000000
    357.909307     322.088880     117.449113       0.000000
    384.728867     329.323039     115.744090       0.000000
    375.218051     329.251646     116.426804       0.000000
    372.805610     355.249049     115.469970       0.000000
    367.722823     362.967984     114.372520       0.000000
    369.924136     372.874978     118.194774       0.000000
    358.259204     390.903084     116.760489       0.000000
    378.404180     402.651559     119.734285       0.000000
    381.654962     422.779432     120.578196       0.000000
    371.219889     426.583713     117.426165       0.000000
    360.183847     423.986621     115.982336       0.000000
    373.310350     446.591913     121.130844       0.000000
    380.202745     453.378447     123.222745       0.000000
    359.734034     463.968979     122.715615       0.000000
    369.783179     456.145715     122.448262       0.000000
    368.554386     476.299120     124.162365       0.000000
    381.735918     490.389700     126.002850       0.000000
    370.000000     500.000000     126.815438       0.000000
    380.000000      10.000000     125.018337       0.000000
    385.153184      19.320030     124.095143       0.000000
    373.232177      29.734449     124.724105       0.000000
    384.248983      46.034577     120.109040       0.000000
    394.478015      37.527813     121.105147       0.000000
    386.696073      56.086234     120.037984       0.000000
