    223.677384      75.289186     119.813491       0.000000
    234.290562      74.589476     116.127377       0.000000
    224.669049     102.348220     125.149780       0.000000
    233.996700     104.391366     126.751224       0.000000
    234.408722     127.550206     128.906059       0.000000
    226.631161     122.579508     129.048136       0.000000
    231.929026     136.357110     127.623176       0.000000
    218.486107     153.757609     126.172943       0.000000
    229.076507     156.775611     124.611546       0.000000
    229.786523     171.183815     119.153289       0.000000
    248.511828     167.580577     119.797442       0.000000
    249.188803     191.095660     113.836753       0.000000
    236.914030     183.271073     112.366492       0.000000
    239.924197     207.263175     108.205075       0.000000
    242.177990     218.647931     109.303240       0.000000
    224.424231     244.123578     118.758927       0.000000
    227.451976     253.796437     123.367908       0.000000
    236.351956     251.403563     123.229629       0.000000
    239.543894     261.161637     127.610450       0.000000
    233.005081     272.110020     128.669149       0.000000
    212.287346     263.268920     126.381222       0.000000
    235.756295     291.879432     127.576407       0.000000
    230.070446     300.582207     126.300470       0.000000
    222.456226     307.937271     125.336760       0.000000
    249.303367     332.466936     119.563888       0.000000
    237.438053     328.907381     118.741619       0.000000
    227.773948     336.829217     120.523836       0.000000
    217.555671     365.282149     121.703250       0.000000
    244.951669     362.456993     124.154493       0.000000
    232.940849     360.750757     122.189733       0.000000
    217.545961     375.660515     124.137433       0.000000
    227.429195     379.002965     122.290014       0.000000
    241.759198     390.915466     124.392496       0.000000
    236.371071     413.371185     126.235265       0.000000
    244.469194     417.878074     126.296058       0.000000
    228.530031     423.675000     121.127394       0.000000
    233.048325     434.966103     119.377362       0.000000
    226.334522     448.536547     115.871988       0.000000
    245.190113     459.517183     116.905720       0.000000
    225.607835     467.719066     118.131362       0.000000
    233.643663     482.046199     118.798628       0.000000
    227.479102     490.912378     121.574910       0.000000
    230.000000     500.000000     122.440107       0.000000
    240.000000      10.000000     122.351561       0.000000
    231.972999      26.924567     120.241337       0.000000
    232.623171      45.408847     116.562881       0.000000
    248.675386      46.543357     116.238356       0.000000
    241.097834      41.328196     116.961194       0.000000
    239.537679      54.854952     114.286014       0.000000
    254.611215      65.755536     116.933734       0.000000
    244.659365      75.625329     116.542856       0.000000
    246.723660      90.289605     120.319350       0.000000
    238.992389      84.390675     117.322595       0.000000
    229.466931      94.866710     121.466317       0.000000
    232.538760     114.770427     129.511157       0.000000
    236.306318     144.396717     125.539103       0.000000
    253.447718     139.259105     128.080630       0.000000
    248.028499     146.489922     124.221688       0.000000
    237.541612     153.692156     123.254173       0.000000
    237.579182     174.406785     115.974679       0.000000
    249.083324     180.646190     114.513997       0.000000
    269.248862     181.011656     115.471477       0.000000
    240.718405     194.082442     111.200684       0.000000
    232.717341     213.526378     110.626183       0.000000
    229.279154     224.581274     114.219999       0.000000
    227.763821     234.992269     116.584292       0.000000
    233.994388     242.011822     119.245590       0.000000
    246.536488     246.917874     122.030190       0.000000
    250.457967     268.613026     128.757317       0.000000
    243.111606     273.860868     128.820336       0.000000
    221.329847     266.346716     128.579356       0.000000
    223.650139     290.272158     129.850518       0.000000
    232.421396     311.367671     124.107398       0.000000
    239.893924     300.808780     124.495226       0.000000
    243.403999     315.344626     121.940213       0.000000
    235.104465     343.419513     120.938745       0.000000
    226.771158     347.388202     121.385155       0.000000
    224.114216     358.575457     121.530349       0.000000
    254.746960     368.433062     126.846362       0.000000
    262.861072     358.786555     125.442325       0.000000
    226.421469     368.968916     122.297713       0.000000
    238.216774     382.570489     122.870083       0.000000
    227.392449     414.097352     123.313289       0.000000
    236.776551     401.862382     125.492658       0.000000
    253.457922     416.489030     127.940428       0.000000
    241.516000     426.922178     123.551475       0.000000
    235.152296     445.807697     115.865000       0.000000
    234.269717     459.179926     115.584517       0.000000
    244.406374     450.438105     115.111117       0.000000
    236.757198     471.999841     117.864884       0.000000
    245.146413     480.167597     119.111941       0.000000
    239.449930     489.048703     119.284009       0.000000
    240.000000     500.000000     121.928982       0.000000
    250.000000      10.000000     121.000690       0.000000
    246.412972      21.550463     119.924537       0.000000
    258.798172      28.207450     118.552617       0.000000
    245.880971      30.992621     119.047188       0.000000
    255.706546      74.860807     118.780360       0.000000
    252.592514      56.138093     115.542939       0.000000
    264.638734      78.545692     121.433633       0.000000
    254.660113      93.774574     122.910241       0.000000
    263.850286      94.990165     125.611113       0.000000
    240.129754      96.219960     122.640933       0.000000
    243.721233     108.366906     129.598799       0.000000
    243.720907     138.541063     126.353749       0.000000
    244.359480     128.579429     129.264509       0.000000
    262.419600     135.763465     129.556737       0.000000
    256.716167     150.967395     122.602923       0.000000
    249.608531     158.756534     121.739039       0.000000
    237.194335     164.943318     121.020299       0.000000
    257.542304     163.407322     120.543867       0.000000
    259.470601     183.669455     115.452232       0.000000
    262.657179     193.661749     114.535367       0.000000
    252.804405     201.615455     111.738242       0.000000
    251.086877     215.927790     111.688371       0.000000
    237.851641     229.165489     115.241953       0.000000
    243.050570     237.585298     116.952848       0.000000
    247.091886     255.251994     126.469164       0.000000
    259.388246     263.513130     127.736219       0.000000
    242.687992     282.888454     128.125989       0.000000
    233.193400     281.921348     129.639359       0.000000
    247.843160     292.465908     126.618675       0.000000
    247.150833     306.131718     124.295629       0.000000
    254.160938     299.964908     125.305476       0.000000
    253.947819     313.435789     123.346378       0.000000
    259.559692     332.982402     120.098394       0.000000
    242.924212     338.819915     119.554577       0.000000
    238.092626     352.477879     121.096812       0.000000
    253.647105     358.816820     123.992440       0.000000
    262.203146     373.835835     129.284278       0.000000
    247.001943     373.242837     125.306487       0.000000
    257.691130     391.299430     129.099093       0.000000
    246.751220     407.916221     128.235759       0.000000
    255.850009     406.600939     130.002343       0.000000
    252.059972     426.072885     124.709564       0.000000
    245.705903     440.494771     118.953890       0.000000
    255.441282     447.178682     121.482118       0.000000
    253.278322     456.200832     119.616721       0.000000
    256.641989     468.802758     120.316346       0.000000
    245.625578     468.698485     117.736476       0.000000
    255.671190     478.666939     121.033037       0.000000
    251.664239     487.528943     121.348948       0.000000
    250.000000     500.000000     121.644891       0.000000
    260.000000      10.000000     121.645713       0.000000
    255.287775      18.330141     119.748251       0.000000
    253.792808      36.939830     117.858596       0.000000
    261.637152      49.160957     119.426802       0.000000
    262.087040      58.426798     119.521843       0.000000
    266.485617      67.895842     120.712739       0.000000
    252.817705      83.305209     120.236069       0.000000
    261.143921      86.891854     121.885839       0.000000
    254.357890     107.965321     128.542880       0.000000
    248.677357     101.503682     125.744056       0.000000
    253.121221     118.709818     129.455617       0.000000
    262.053250     112.904221     131.140792       0.000000
    240.625204     119.164497     129.636758       0.000000
    265.724298     124.744237     130.852792       0.000000
    269.126679     156.021245     124.405618       0.000000
    256.583756     174.420145     117.226407       0.000000
    264.694774     169.450623     119.722616       0.000000
    287.994554     178.978157     117.911441       0.000000
    279.543952     180.749154     115.069828       0.000000
    263.242642     203.568217     115.352363       0.000000
    259.875272     222.932288     116.802748       0.000000
    259.749946     213.547411     115.937925       0.000000
    257.389268     234.445737     116.029343       0.000000
    264.804751     241.162502     119.579945       0.000000
    272.829808     257.920044     125.798708       0.000000
    255.062283     244.383123     120.513538       0.000000
    257.649201     254.425410     125.427353       0.000000
    256.789155     290.441000     127.160640       0.000000
    262.713313     283.267785     127.902397       0.000000
    263.458028     297.215355     125.456217       0.000000
    262.182465     308.777216     123.925677       0.000000
    245.759581     323.980955     119.946659       0.000000
    264.811590     317.265913     121.500240       0.000000
    252.524071     341.677827     120.253975       0.000000
    246.128298     348.207197     120.905381       0.000000
    257.245361     349.640639     122.394832       0.000000
    256.819659     382.005072     127.876072       0.000000
    235.817336     373.656405     123.544401       0.000000
    266.561941     384.086751     131.628850       0.000000
    247.968086     382.842550     125.006435       0.000000
    249.466717     396.283850     126.592709       0.000000
    262.437968     419.028256     129.272010       0.000000
    252.267285     434.933620     121.898902       0.000000
    261.369849     438.886854     124.427361       0.000000
    266.940232     452.243600     123.547432       0.000000
    261.288657     459.911263     122.505033       0.000000
    265.966931     467.640084     123.106273       0.000000
    264.913156     478.237713     123.359785       0.000000
    262.152372     488.152914     122.896624       0.000000
    260.000000     500.000000     122.733840       0.000000
    270.000000      10.000000     122.323334       0.000000
    273.465858      19.262849     122.573587       0.000000
    264.017355      20.209744     120.913289       0.000000
    270.397848      28.053968     121.269287       0.000000
    265.094042      37.645619     119.251143       0.000000
    272.088753      49.773184     121.337373       0.000000
    273.153233      61.680761     122.383587       0.000000
    273.445806      75.368063     121.951089       0.000000
    272.409457      96.243425     128.812043       0.000000
    283.876217     101.800131     134.080447       0.000000
    274.765429     126.008396     132.174658       0.000000
    272.799079     136.338417     129.698534       0.000000
    283.263486     127.191079     135.121515       0.000000
    255.763599     129.660963     130.014209       0.000000
    290.660597     132.651204     134.395352       0.000000
    276.298430     165.070224     123.983735       0.000000
    282.971219     171.960986     120.691361       0.000000
    281.134811     199.658477     116.262596       0.000000
    273.132849     204.626300     116.136594       0.000000
    271.902279     192.945286     114.973977       0.000000
    268.993722     213.785843     117.045309       0.000000
    249.195518     228.811849     113.392859       0.000000
    271.542749     222.574860     117.684199       0.000000
    266.694437     230.553997     118.099662       0.000000
    282.150652     256.821186     126.429393       0.000000
    268.292803     266.417262     126.749951       0.000000
    269.151002     249.087093     122.770352       0.000000
    251.949384     279.255205     127.578721       0.000000
    285.998582     299.080139     120.330342       0.000000
    275.040923     301.111400     120.814538       0.000000
    290.743038     309.397238     118.945767       0.000000
    280.662115     311.433258     118.932743       0.000000
    256.959685     322.531431     119.877364       0.000000
    267.569299     348.459458     123.489841       0.000000
    275.840175     355.106994     125.011596       0.000000
    269.229980     366.079286     129.683487       0.000000
    273.075366     374.664906     131.415951       0.000000
    274.975273     385.225630     134.687018       0.000000
    280.490308     396.229559     134.485315       0.000000
    271.086241     393.506460     135.539133       0.000000
    263.630917     399.556531     132.605367       0.000000
    265.509105     410.211317     132.819539       0.000000
    271.452333     420.491937     131.245453       0.000000
    262.087970     427.875504     126.091169       0.000000
    270.924109     433.964347     127.491940       0.000000
    269.404366     443.051409     125.475293       0.000000
    276.343062     462.581947     123.944252       0.000000
    279.315890     481.178316     126.566267       0.000000
    270.796232     490.328336     125.104208       0.000000
    270.000000     500.000000     123.910939       0.000000
    280.000000      10.000000     125.314944       0.000000
    286.382619      21.228101     124.946587       0.000000
    280.111560      29.121385     122.626375       0.000000
    274.312655      36.394529     121.626541       0.000000
    283.670799      52.231389     124.236609       0.000000
    284.739150      61.278218     124.871416       0.000000
    281.455476      69.798414     123.616417       0.000000
    283.044610      78.686999     124.909339       0.000000
    270.570699      85.961345     123.831510       0.000000
    289.529235      94.565863     132.276729       0.000000
    262.770713     103.859142     128.737119       0.000000
    271.283817     117.319475     132.272109       0.000000
    288.840076     152.630470     129.930150       0.000000
    266.062715     145.723622     127.611130       0.000000
    283.892845     141.799507     131.092591       0.000000
    274.664880     148.401214     128.773480       0.000000
    273.705726     173.397606     118.104201       0.000000
    287.738905     164.042283     127.178930       0.000000
    288.152118     215.641427     113.982664       0.000000
    278.918859     211.662171     115.011082       0.000000
    289.073362     225.819984     117.137449       0.000000
    280.800979     221.209706     116.276638       0.000000
    278.674237     230.720153     118.397936       0.000000
    274.548214     238.886800     119.020931       0.000000
    281.576287     248.257238     122.728024       0.000000
    286.604756     269.706595     126.828750       0.000000
    261.837287     273.997703     128.190258       0.000000
    271.443557     276.431168     126.902008       0.000000
    272.772711     291.357391     125.417106       0.000000
    281.437236     287.715549     124.640147       0.000000
    272.053672     310.007486     121.860465       0.000000
    267.031963     327.177604     120.588545       0.000000
    278.275192     329.040553     119.743184       0.000000
    265.726555     339.785410     120.173487       0.000000
    279.806983     345.655879     122.259236       0.000000
    282.391032     365.032445     128.309457       0.000000
    283.882560     373.938111     131.298427       0.000000
    284.869372     383.075740     132.952613       0.000000
    286.453642     406.001712     134.239990       0.000000
    272.938216     402.549618     135.394116       0.000000
    275.396765     411.022121     133.518429       0.000000
    290.356229     426.219594     127.660413       0.000000
    277.182744     427.598220     129.511968       0.000000
    293.162881     436.790368     128.582795       0.000000
    280.049848     441.649520     127.417064       0.000000
    276.664575     452.923109     124.237393       0.000000
    273.509846     472.572045     124.160000       0.000000
    283.359883     468.482225     125.231905       0.000000
    280.228579     490.830663     127.197948       0.000000
    280.000000     500.000000     126.150807       0.000000
    290.000000      10.000000     127.396669       0.000000
    295.364464      18.464549     128.535875       0.000000
    289.912068      31.738808     124.609737       0.000000
    282.871240      40.986412     124.361861       0.000000
    291.910010      41.662388     124.709942       0.000000
    295.908466      53.105970     125.562171       0.000000
    295.084632      63.736015     125.183995       0.000000
    290.493500      82.647272     128.255602       0.000000
    281.491489      90.490226     128.735455       0.000000
    300.150457      92.224519     132.563085       0.000000
    295.051025     103.550796     135.832336       0.000000
    296.548936     112.943605     137.697145       0.000000
    275.609851     106.764312     132.818459       0.000000
    280.328061     117.560789     134.990618       0.000000
    301.570513     147.973187     134.807032       0.000000
    295.893591     160.831766     129.689760       0.000000
    280.272540     156.388214     127.648616       0.000000
    296.377319     183.408190     120.663915       0.000000
    282.196785     189.367500     116.038623       0.000000
    290.642789     202.220656     114.032445       0.000000
    296.490775     210.097633     113.046572       0.000000
    297.434134     231.102631     120.182708       0.000000
    306.358918     235.624800     121.162188       0.000000
    287.854360     237.737380     120.340270       0.000000
    291.592244     247.699846     123.237996       0.000000
    293.025392     261.018922     125.744667       0.000000
    277.426763     269.627691     127.988568       0.000000
    286.474707     278.962469     127.093766       0.000000
    294.267404     292.342945     121.718799       0.000000
    284.730317     319.675824     120.143515       0.000000
    296.757742     320.111801     119.475820       0.000000
    275.609392     318.567558     121.170525       0.000000
    287.186975     329.583849     118.585430       0.000000
    274.568851     337.781020     120.563686       0.000000
    288.105625     338.682577     120.655234       0.000000
    291.643927     347.109306     122.280898       0.000000
    286.672239     355.200712     125.059192       0.000000
    294.754430     365.656749     126.209402       0.000000
    290.705326     397.100849     133.582057       0.000000
    302.561802     398.876602     131.170058       0.000000
    284.058296     419.932371     130.004360       0.000000
    299.640935     424.686073     127.058614       0.000000
    283.881988     433.658131     129.185441       0.000000
    287.501814     446.637785     126.512080       0.000000
    299.115093     443.711055     126.895908       0.000000
    295.436441     454.212714     126.579569       0.000000
    286.045912     456.601035     125.653298       0.000000
    292.553564     478.388413     126.641670       0.000000
    288.848807     486.820049     127.921050       0.000000
    290.000000     500.000000     128.316951       0.000000
    300.000000      10.000000     130.087366       0.000000
    301.240739      30.278766     127.931948       0.000000
    301.756295      40.607292     126.990699       0.000000
    311.338352      42.212623     129.007434       0.000000
    306.259094      58.924241     127.275018       0.000000
    308.051021      69.461303     126.786517       0.000000
    290.134378      72.303134     124.501122       0.000000
    300.253526      74.201652     125.609689       0.000000
    303.624117     100.073886     135.626855       0.000000
    321.659894      95.429064     130.300747       0.000000
    308.703289      89.592264     131.235265       0.000000
    304.861895     108.867971     138.055019       0.000000
    288.022048     109.591859     135.882697       0.000000
    300.767813     129.862556     138.020744       0.000000
    307.937993     159.199143     134.739738       0.000000
    302.486006     168.541302     129.566741       0.000000
    293.243386     170.907922     125.078058       0.000000
    304.556019     177.675871     125.404706       0.000000
    292.064171     192.646468     115.873769       0.000000
    305.489915     205.834459     114.661774       0.000000
    308.367114     215.707232     116.504836       0.000000
    296.869313     220.606977     115.489907       0.000000
    305.088814     226.328411     119.202027       0.000000
    298.926543     240.733761     120.965148       0.000000
    299.552733     253.598985     124.190168       0.000000
    313.647886     265.944653     126.106258       0.000000
    301.473488     267.801647     126.552621       0.000000
    294.609439     274.134176     126.848221       0.000000
    303.599486     294.516003     122.271746       0.000000
    296.493974     302.603463     120.282931       0.000000
    307.126470     303.326973     121.576038       0.000000
    304.155453     325.740551     118.927062       0.000000
    305.509704     334.695955     121.054096       0.000000
    295.743515     333.000569     120.066414       0.000000
    302.500649     343.515167     121.410057       0.000000
    295.824495     356.883243     123.103458       0.000000
    304.542314     362.399624     124.437829       0.000000
    293.471469     374.615358     129.231853       0.000000
    303.781653     384.519459     128.031962       0.000000
    312.083192     388.413983     124.814727       0.000000
    296.106475     405.315272     132.411925       0.000000
    296.248943     414.362690     130.335677       0.000000
    306.269381     435.141141     125.059792       0.000000
    313.502898     446.258674     123.717533       0.000000
    320.773426     452.137463     126.412797       0.000000
    292.813898     462.939614     126.303217       0.000000
    297.806106     471.071995     126.898849       0.000000
    310.661903     490.296524     129.625940       0.000000
    301.322525     481.550147     127.515710       0.000000
    300.000000     500.000000     129.719981       0.000000
    310.000000      10.000000     131.618807       0.000000
    304.970823      20.714399     130.158840       0.000000
    310.888334      32.395853     129.578230       0.000000
    303.876915      49.514550     127.918504       0.000000
    327.427395      64.492584     124.163183       0.000000
    327.097927      55.641412     126.313148       0.000000
    315.266912      77.955037     126.800957       0.000000
    320.962200      71.111798     125.296537       0.000000
    303.761872      82.690191     128.026529       0.000000
    329.882626      88.631665     125.129238       0.000000
    303.035980     119.737577     139.865621       0.000000
    292.334684     123.865340     137.447769       0.000000
    301.000932     138.627408     135.729968       0.000000
    292.319305     144.337145     133.310977       0.000000
    311.647764     148.949122     135.661991       0.000000
    321.301437     151.272123     135.561973       0.000000
    311.885222     172.285009     126.689344       0.000000
    318.879740     177.966579     122.619147       0.000000
    302.478013     193.701901     116.401178       0.000000
    315.974916     197.154631     116.333457       0.000000
    315.464829     210.109599     116.998287       0.000000
    314.992721     223.575858     119.324432       0.000000
    325.707373     227.300783     122.138925       0.000000
    316.818588     234.642387     122.613771       0.000000
    306.776151     259.765952     126.038387       0.000000
    307.891132     276.092265     127.077615       0.000000
    305.573733     285.606346     123.892617       0.000000
    295.978344     283.037363     124.787355       0.000000
    319.513483     283.840880     124.250042       0.000000
    325.227506     292.116013     122.330380       0.000000
    315.289855     293.124263     123.015923       0.000000
    304.032534     314.140518     119.420123       0.000000
    313.404718     322.098157     118.401781       0.000000
    314.988014     331.370644     118.946466       0.000000
    322.223064     353.447131     119.987639       0.000000
    317.301083     340.322576     119.806070       0.000000
    312.297915     347.372478     122.436314       0.000000
    303.424773     374.249134     126.288138       0.000000
    312.952011     377.694316     123.605898       0.000000
    294.273605     386.016066     132.019106       0.000000
    307.942528     406.101265     129.378999       0.000000
    306.622879     415.626637     128.619737       0.000000
    318.846128     418.900463     124.677462       0.000000
    321.424031     469.656848     127.799386       0.000000
    313.384844     463.315446     127.619572       0.000000
    306.799342     453.382989     126.655754       0.000000
    303.414699     462.817954     128.224919       0.000000
    314.008582     480.027503     129.311262       0.000000
    299.540572     490.591142     129.259344       0.000000
    310.000000     500.000000     131.602022       0.000000
    320.000000      10.000000     132.610757       0.000000
    314.892780      17.822209     132.569939       0.000000
    320.553602      27.181012     131.223030       0.000000
    312.719379      51.132887     128.393040       0.000000
    318.449758      61.340729     127.499902       0.000000
    333.877155      70.862300     123.450535       0.000000
    342.981360      70.281785     123.702482       0.000000
    327.883958      78.532366     124.267075       0.000000
    317.964298      86.515997     128.511044       0.000000
    333.819372     107.713116     131.841331       0.000000
    324.387344     105.088104     132.864519       0.000000
    313.081948     113.711353     138.682087       0.000000
    310.336320     126.876845     139.694975       0.000000
    311.554886     136.672302     138.020864       0.000000
    323.124783     129.890636     137.566053       0.000000
    331.227235     173.144484     122.904357       0.000000
    315.163300     163.519985     131.264700       0.000000
    318.581173     186.746835     118.721568       0.000000
    309.932539     184.845924     120.951924       0.000000
    324.218572     203.887527     117.002478       0.000000
    321.569982     216.772488     118.378485       0.000000
    334.114066     222.321746     123.940725       0.000000
    315.465935     244.363832     123.245246       0.000000
    306.734482     247.874758     122.888071       0.000000
    324.714268     255.834041     126.450673       0.000000
    313.865305     253.205616     124.826215       0.000000
    337.648071     262.078875     127.105571       0.000000
    316.633441     274.506163     125.091876       0.000000
    330.569682     284.060277     122.680624       0.000000
    316.433056     302.237774     122.843467       0.000000
    313.812207     311.520751     120.668692       0.000000
    334.371445     331.124899     116.187612       0.000000
    325.958468     345.274909     117.361397       0.000000
    343.779009     332.342224     115.609400       0.000000
    331.589604     353.311804     117.431940       0.000000
    313.835086     356.928947     122.138062       0.000000
    304.960669     353.660124     122.106573       0.000000
    313.072245     367.420972     122.031449       0.000000
    320.334144     394.726385     121.882830       0.000000
    322.269908     403.521726     122.519562       0.000000
    309.903544     424.938420     125.327204       0.000000
    317.206324     432.072996     121.944875       0.000000
    329.361133     446.037177     120.861948       0.000000
    326.268574     426.042288     119.372752       0.000000
    325.345012     460.396884     126.911166       0.000000
    347.480704     448.508984     122.433665       0.000000
    307.244471     472.410618     128.085185       0.000000
    322.946503     482.358242     129.351142       0.000000
    322.296303     491.430991     130.226464       0.000000
    320.000000     500.000000     131.886444       0.000000
    330.000000      10.000000     131.321318       0.000000
    336.169898      19.308837     130.747469       0.000000
    324.883086      18.477848     132.136631       0.000000
    330.588166      31.818880     129.270751       0.000000
    322.530562      37.242389     129.810481       0.000000
    344.838030      55.986919     122.847164       0.000000
    336.851749      52.113217     124.575965       0.000000
    332.648773      97.847656     128.585278       0.000000
    350.752426      95.932122     122.711680       0.000000
    323.754623     113.760641     135.292155       0.000000
    336.360044     116.397834     132.121447       0.000000
    341.971401     100.198565     127.106181       0.000000
    318.087179     121.451540     138.982257       0.000000
    331.903008     130.824217     133.666488       0.000000
    321.495306     141.342489     137.676838       0.000000
    322.854967     168.363916     128.283862       0.000000
    327.668039     161.498587     131.845690       0.000000
    330.518389     182.600384     120.651053       0.000000
    334.822622     192.372644     117.103684       0.000000
    334.264526     201.589731     116.892417       0.000000
    329.797726     211.315005     118.867259       0.000000
    326.408978     236.966046     124.150223       0.000000
    333.727469     242.368680     126.050701       0.000000
    325.303970     246.053441     124.821254       0.000000
    335.486988     252.415400     127.523132       0.000000
    326.166901     265.650643     124.811401       0.000000
    336.025353     271.121520     125.531818       0.000000
    326.432422     274.659295     124.439685       0.000000
    339.793672     283.872080     123.089704       0.000000
    334.335479     293.164327     121.130683       0.000000
    324.241716     332.722261     118.285762       0.000000
    321.987208     316.067062     119.700847       0.000000
    328.508225     322.993136     117.880446       0.000000
    334.742628     340.516420     115.976559       0.000000
    343.097538     353.315926     114.658975       0.000000
    330.808541     371.533834     118.307001       0.000000
    325.262527     362.259577     119.265187       0.000000
    321.860180     371.672561     120.469216       0.000000
    322.508394     384.800468     121.717154       0.000000
    329.821394     396.233064     119.249841       0.000000
    311.055190     397.496677     127.354274       0.000000
    327.095102     411.269656     120.114861       0.000000
    338.328829     429.131955     116.878234       0.000000
    321.555169     441.542904     120.920123       0.000000
    338.537278     447.494381     120.797069       0.000000
    332.684578     466.897228     125.027003       0.000000
    329.551293     476.668042     126.957781       0.000000
    332.950411     490.491114     129.522955       0.000000
    343.634927     489.493063     129.734238       0.000000
    330.000000     500.000000     130.484373       0.000000
    340.000000      10.000000     131.434649       0.000000
    345.018909      17.891735     131.675042       0.000000
    339.142335      28.763570     127.526788       0.000000
    343.566208      38.773364     125.619291       0.000000
    335.268986      43.302483     125.799055       0.000000
    336.078380      61.194610     123.287096       0.000000
    324.110051      45.874911     127.562029       0.000000
    338.546913      81.821960     123.712417       0.000000
    342.794740      90.701971     123.912508       0.000000
    342.231101     109.921209     129.170516       0.000000
    314.013386     103.525971     135.431264       0.000000
    340.931386     124.261148     130.284428       0.000000
    328.991662     121.985601     134.061818       0.000000
    348.245732     130.651728     127.791616       0.000000
    332.890389     139.807445     133.878010       0.000000
    342.184965     173.312110     121.397331       0.000000
    349.188502     180.747472     117.488781       0.000000
    354.339154     188.344224     119.068600       0.000000
    325.492608     193.826787     117.023442       0.000000
    340.837741     184.207024     118.937814       0.000000
    344.082167     204.436024     118.264650       0.000000
    334.990310     232.427664     124.080507       0.000000
    344.111044     230.799687     125.321161       0.000000
    345.002781     250.958810     126.530843       0.000000
    342.591223     239.899843     126.470746       0.000000
    347.133937     262.924207     126.112570       0.000000
    353.115524     256.057178     127.011248       0.000000
    344.642600     275.785789     123.374353       0.000000
    344.749624     293.795341     120.895969       0.000000
    332.956284     311.846504     118.715401       0.000000
    337.807987     321.005215     116.599941       0.000000
    347.228652     323.846702     115.805341       0.000000
    343.608471     342.918022     115.155020       0.000000
    353.969401     343.447958     114.494373       0.000000
    345.995893     362.819800     114.949774       0.000000
    337.209677     360.517606     115.632842       0.000000
    339.748905     369.604654     116.041639       0.000000
    343.839553     386.959495     115.388836       0.000000
    330.746393     381.827454     119.393367       0.000000
    336.347156     406.532491     117.286122       0.000000
    316.207935     410.370012     127.451366       0.000000
    332.880568     418.488810     118.076257       0.000000
    341.874253     416.276982     116.837578       0.000000
    330.863593     434.149574     118.838546       0.000000
    356.429670     433.506271     117.000706       0.000000
    342.525234     438.212317     118.059757       0.000000
    334.998086     455.725147     123.092771       0.000000
    339.520007     473.453050     125.025878       0.000000
    352.632255     491.358277     129.667496       0.000000
    340.000000     500.000000     130.930637       0.000000
    350.000000      10.000000     131.008690       0.000000
    355.219578      19.666557     129.842514       0.000000
    348.731163      27.299525     128.338108       0.000000
    354.969509      39.515225     124.086509       0.000000
    348.463052      47.247614     123.647270       0.000000
    353.527020      61.272680     122.212254       0.000000
    352.298197      70.542641     122.343154       0.000000
    351.374502      81.450759     122.655383       0.000000
    361.548386     100.925138     120.820982       0.000000
    360.272091     111.188850     123.253233       0.000000
    347.760367     118.653672     127.792756       0.000000
    359.644341     123.675231     124.243164       0.000000
    340.031977     133.630604     130.169814       0.000000
    340.063288     145.600223     130.340392       0.000000
    340.032636     164.853019     126.102871       0.000000
    348.831046     148.598886     126.783581       0.000000
    346.614469     157.565230     126.945419       0.000000
    348.951096     166.064755     123.606645       0.000000
    351.852137     197.878612     119.405083       0.000000
    344.163492     193.392984     116.734348       0.000000
    339.401674     213.795128     121.300658       0.000000
    358.738670     204.767887     122.802554       0.000000
    343.978781     221.536676     124.322475       0.000000
    351.540551     242.493738     125.677926       0.000000
    364.791950     241.767218     125.185507       0.000000
    358.457277     248.314134     125.924591       0.000000
    353.330870     269.832923     124.045946       0.000000
    365.980812     266.768230     122.925145       0.000000
    349.918510     286.054848     121.069594       0.000000
    328.981073     303.967556     120.767643       0.000000
    342.174166     312.904272     117.397483       0.000000
    365.613537     312.972722     114.388360       0.000000
    355.104617     316.088074     116.094681       0.000000
    353.457284     352.883944     114.333255       0.000000
    355.568725     363.265902     115.197426       0.000000
    348.785649     372.041983     116.025068       0.000000
    338.976250     379.329593     116.156249       0.000000
    352.206179     381.949485     115.496119       0.000000
    338.460453     393.948229     117.512883       0.000000
    360.659662     403.770838     116.230287       0.000000
    346.754854     398.458648     116.254888       0.000000
    350.758472     410.827592     116.824034       0.000000
    347.247134     430.473685     117.286496       0.000000
    351.554067     440.866264     119.007143       0.000000
    351.337887     456.934266     123.222592       0.000000
    343.955258     462.995584     123.672974       0.000000
    348.627481     472.174933     125.152132       0.000000
    337.554226     482.776717     128.171610       0.000000
    363.266264     490.365109     127.138171       0.000000
    350.000000     500.000000     130.561740       0.000000
    360.000000      10.000000     128.420221       0.000000
    365.608770      23.205544     127.382539       0.000000
    365.894914      36.024600     125.864819       0.000000
    356.445964      51.984736     122.841575       0.000000
    372.943763      51.502086     122.654738       0.000000
    363.970278      58.554429     121.759658       0.000000
    361.877506      68.040200     121.162410       0.000000
    370.973976      81.357478     119.161733       0.000000
    361.539037      87.998345     120.637165       0.000000
    374.240512     106.589480     118.797125       0.000000
    377.499587     116.130160     118.189576       0.000000
    358.581093     133.844625     125.346694       0.000000
    338.251590     156.342587     130.311651       0.000000
    329.667664     148.224488     134.101464       0.000000
    359.401140     146.765970     125.795725       0.000000
    364.898138     155.934474     123.391572       0.000000
    355.760818     159.199710     124.716435       0.000000
    357.360196     175.172110     120.079420       0.000000
    361.668633     195.923498     122.293229       0.000000
    370.809072     196.681732     125.102479       0.000000
    368.334012     208.641686     126.149982       0.000000
    349.751315     210.546090     121.882500       0.000000
    354.393406     224.378029     125.896818       0.000000
    373.989665     242.236307     125.427209       0.000000
    369.108233     249.699379     124.056715       0.000000
    362.148244     257.951438     125.158576       0.000000
    375.667000     272.199565     120.997682       0.000000
    362.128762     288.375702     118.697898       0.000000
    349.596733     305.063225     118.449396       0.000000
    338.156459     303.223197     118.726046       0.000000
    359.736643     306.101995     116.574249       0.000000
    364.298525     333.268041     114.460782       0.000000
    353.068752     334.218204     114.979756       0.000000
    371.264836     339.416624     114.002957       0.000000
    363.340578     343.967398     113.483217       0.000000
    363.366640     353.641063     113.924201       0.000000
    358.084266     372.604020     115.763847       0.000000
    362.356958     383.448623     116.498480       0.000000
    367.044239     394.308360     115.581999       0.000000
    359.366958     415.829930     115.803314       0.000000
    369.594468     405.317001     116.056144       0.000000
    350.934748     421.220667     116.233983       0.000000
    366.350967     433.250535     119.527785       0.000000
    361.097532     441.501913     119.556308       0.000000
    359.337875     452.730160     123.314901       0.000000
    358.388199     471.571241     126.089485       0.000000
    358.146970     482.932328     127.799875       0.000000
    346.717300     481.558525     125.685332       0.000000
    371.384274     486.457641     125.217276       0.000000
    360.000000     500.000000     128.103458       0.000000
    370.000000      10.000000     126.185485       0.000000
    376.321365      20.436509     125.206109       0.000000
    359.063213      29.719400     127.067872       0.000000
    362.607377      45.074822     123.834601       0.000000
    374.694048      60.943195     119.763560       0.000000
    361.722994      78.283697     120.381892       0.000000
    379.168920      75.744090     118.596507       0.000000
    394.988872      84.712019     116.737076       0.000000
    369.459312      96.353516     120.146714       0.000000
    350.361773     105.852141     124.287133       0.000000
    376.374706     124.570303     121.358932       0.000000
    367.061613     117.519216     121.844126       0.000000
    368.074306     129.256524     124.592475       0.000000
    388.850900     129.745975     120.498797       0.000000
    350.468003     139.586328     127.841325       0.000000
    371.415820     138.396584     123.959759       0.000000
    370.062997     148.039341     123.999001       0.000000
    367.630356     177.421135     120.639614       0.000000
    363.499313     185.759905     121.067646       0.000000
    375.770861     213.928529     127.509767       0.000000
    357.289841     215.634634     124.168778       0.000000
    364.632125     222.723178     126.454787       0.000000
    358.724322     234.016886     125.689471       0.000000
    367.647003     231.482135     126.200771       0.000000
    380.638378     249.482086     122.930962       0.000000
    375.730865     261.707222     122.534049       0.000000
    384.592929     257.702191     121.369242       0.000000
    358.805141     277.761704     121.923663       0.000000
    368.010777     295.165341     115.393052       0.000000
    356.137964     296.505440     118.600749       0.000000
    370.619814     304.287041     114.064515       0.000000
    389.416402     318.087823     113.997564       0.000000
    361.842674     322.766829     115.154657       0.000000
    384.170927     328.889060     115.677954       0.000000
    375.304072     330.601480     115.690054       0.000000
    373.787723     348.673164     115.163117       0.000000
    368.580827     361.181222     116.376840       0.000000
    369.965679     373.793969     115.999468       0.000000
    356.314481     391.239338     115.038699       0.000000
    378.478911     402.114819     116.702857       0.000000
    381.931262     421.889311     121.524222       0.000000
    372.873142     424.700210     118.683428       0.000000
    360.364790     425.138678     116.447969       0.000000
    371.456919     445.356970     122.612260       0.000000
    379.343029     450.879676     124.852319       0.000000
    359.377333     461.928672     125.575978       0.000000
    368.721501     455.723536     124.120950       0.000000
    368.256291     477.669481     124.866822       0.000000
    379.928446     490.667244     124.110934       0.000000
    370.000000     500.000000     125.679426       0.000000
    380.000000      10.000000     125.097457       0.000000
    385.907626      18.677680     123.584850       0.000000
    373.641367      30.606884     126.003657       0.000000
    382.607693      47.114542     123.980547       0.000000
    391.296616      39.374304     122.787387       0.000000
    382.513606      56.583191     120.948079       0.000000
    370.756560      71.114376     118.357696       0.000000
    384.990956      65.544418     119.358447       0.000000
    380.693364      99.760112     117.006457       0.000000
    385.372863     109.255809     118.003361       0.000000
    395.499636     112.116830     117.932996       0.000000
    388.096137     120.451340     119.578755       0.000000
    382.397126     142.600885     121.894188       0.000000
    379.909612     133.325833     121.072498       0.000000
    370.973990     162.638651     122.285086       0.000000
    393.416403     150.253392     123.171540       0.000000
    362.384384     167.511256     122.595928       0.000000
    375.350130     170.868463     121.588786       0.000000
    377.108094     189.112779     125.208047       0.000000
    386.609199     209.323985     127.870137       0.000000
    384.047664     218.443976     128.100874       0.000000
    396.905376     226.605638     126.705095       0.000000
    374.614699     222.971698     127.358569       0.000000
    385.288244     228.535027     127.321909       0.000000
    376.856313     231.713293     127.294457       0.000000
    383.074590     266.834263     118.516682       0.000000
    380.081680     279.678851     117.066553       0.000000
    370.480421     280.337271     119.081782       0.000000
    373.762976     288.052199     115.648620       0.000000
    380.831714     294.590778     114.196880       0.000000
    371.357977     320.748261     115.232029       0.000000
    393.355184     305.948843     112.970707       0.000000
    380.436588     338.264978     115.084766       0.000000
    384.746852     350.342941     116.544832       0.000000
    391.755822     355.257558     120.219476       0.000000
    379.227563     358.086730     117.888493       0.000000
    376.491021     366.624798     119.169613       0.000000
    394.629872     377.325351     128.135467       0.000000
    381.472575     378.746783     119.938715       0.000000
    371.112313     385.075744     118.091598       0.000000
    369.857901     415.085866     116.634214       0.000000
    386.307485     430.146568     123.795201       0.000000
    380.518928     441.103049     124.687558       0.000000
    376.239236     432.802376     120.819995       0.000000
    389.146838     446.287255     125.856399       0.000000
    376.177694     460.847691     124.360585       0.000000
    367.222199     467.467023     125.177757       0.000000
    381.016449     481.110168     124.534701       0.000000
    389.293513     475.273971     124.512195       0.000000
    380.000000     500.000000     125.128709       0.000000
    390.000000      10.000000     124.535182       0.000000
    395.211769      18.601150     122.312942       0.000000
    374.258947      41.306347     124.581008       0.000000
    382.600321      36.523268     123.643059       0.000000
    401.856289      41.182511     123.909345       0.000000
    393.008739      49.463211     123.087195       0.000000
    391.356078      74.911610     119.331779       0.000000
