    387.610257     230.867395     126.270203       0.000000
    378.635457     231.956782     126.449513       0.000000
    384.687523     269.434663     119.155294       0.000000
    380.275534     279.114114     118.103532       0.000000
    369.150556     281.571208     119.899847       0.000000
    375.110069     287.826033     116.638330       0.000000
    379.249111     295.713474     113.330435       0.000000
    374.584308     322.133452     114.204630       0.000000
    393.040624     309.681843     111.054679       0.000000
    380.738864     340.423984     115.997243       0.000000
    385.161711     348.257853     116.926083       0.000000
    392.041591     354.721282     120.289243       0.000000
    377.852323     358.711021     116.041269       0.000000
    379.757567     367.899642     118.354592       0.000000
    394.776018     378.163269     126.484600       0.000000
    380.751989     378.397290     120.595156       0.000000
    371.258370     385.702654     117.095131       0.000000
    372.555881     413.961892     117.215447       0.000000
    386.838837     429.432314     124.601911       0.000000
    380.089858     440.642256     123.507516       0.000000
    375.288271     432.442764     120.824985       0.000000
    389.116101     445.514687     125.770971       0.000000
    374.418262     461.596180     124.575858       0.000000
    367.141475     466.981759     125.509587       0.000000
    381.292885     479.794393     123.018123       0.000000
    387.969656     473.078091     124.378758       0.000000
    380.000000     500.000000     123.728507       0.000000
    390.000000      10.000000     122.634888       0.000000
    396.920535      19.030181     121.528958       0.000000
    374.021191      42.530829     124.346591       0.000000
    382.617990      36.261058     123.399114       0.000000
    400.179302      40.758228     124.361026       0.000000
    392.950666      47.604851     123.795462       0.000000
    390.406679      75.094601     118.840660       0.000000
    398.638695      70.997172     120.275617       0.000000
    385.703762      83.597099     117.355303       0.000000
    376.701633      87.167277     117.575114       0.000000
    394.847259     103.292014     116.616910       0.000000
    408.827880     112.172710     119.181725       0.000000
    399.151830     130.147702     121.249075       0.000000
    391.884627     137.774169     121.307007       0.000000
    381.885370     157.161313     122.342289       0.000000
    391.252883     161.517654     125.264794       0.000000
    384.207979     167.524752     123.823120       0.000000
    385.686641     178.540292     124.690958       0.000000
    380.381485     205.148124     125.425235       0.000000
    384.667419     196.668682     125.775023       0.000000
    392.106842     202.009614     127.365608       0.000000
    395.563615     216.183093     127.513328       0.000000
    407.644758     230.729641     126.247146       0.000000
    406.297851     239.449059     122.049225       0.000000
    394.396275     237.268998     125.483795       0.000000
    385.036705     239.624639     125.407196       0.000000
    393.551605     256.094590     118.963757       0.000000
    385.166402     288.138666     113.860348       0.000000
    392.784710     294.456800     112.894012       0.000000
    378.838552     311.479899     112.188630       0.000000
    385.613208     302.895101     111.710403       0.000000
    402.675901     304.563957     112.026936       0.000000
    396.099176     333.685115     115.489796       0.000000
    390.310547     340.848906     116.642550       0.000000
    398.286560     345.050329     120.411588       0.000000
    388.377254     363.973130     121.006778       0.000000
    387.939524     372.944104     122.545807       0.000000
    398.409569     387.715124     127.754504       0.000000
    388.960004     385.789297     124.831973       0.000000
    377.920718     392.054767     117.952214       0.000000
    386.228739     395.343790     121.048594       0.000000
    381.332828     413.009378     120.317473       0.000000
    422.045823     416.260336     130.588292       0.000000
    392.335523     436.424296     126.789773       0.000000
    387.996549     455.094535     125.512257       0.000000
    385.864847     464.141234     125.052880       0.000000
    377.159583     471.165381     124.414545       0.000000
    395.925977     482.309183     124.502738       0.000000
    390.375973     489.804952     124.591540       0.000000
    390.000000     500.000000     123.590890       0.000000
    400.000000      10.000000     122.613950       0.000000
    406.146182      17.893644     122.587952       0.000000
    384.618300      27.458859     123.722688       0.000000
    393.600625      28.512524     122.382815       0.000000
    411.305573      46.262011     124.037168       0.000000
    403.729327      51.449886     123.470520       0.000000
    394.473615      62.537838     121.690153       0.000000
    405.078311      84.880250     116.887039       0.000000
    403.962520     101.563836     117.699197       0.000000
    386.272560      93.473687     116.873304       0.000000
    397.364795      93.984830     117.046173       0.000000
    401.535145     120.574792     119.003350       0.000000
    403.380411     143.555037     126.362060       0.000000
    413.741617     141.127901     128.900957       0.000000
    407.864594     133.260192     124.777692       0.000000
    408.180053     150.595213     129.465565       0.000000
    394.284965     173.729550     127.253855       0.000000
    400.990044     182.145006     127.311849       0.000000
    377.288826     179.053680     121.401627       0.000000
    387.215753     187.459691     125.586116       0.000000
    396.083162     191.551283     127.488819       0.000000
    405.521880     209.065594     127.115338       0.000000
    415.938072     234.916876     124.230200       0.000000
    417.846734     226.107382     125.479412       0.000000
    402.481080     247.970776     118.659745       0.000000
    393.931365     247.408168     121.512401       0.000000
    402.252062     257.019756     115.426085       0.000000
    389.985758     277.381046     116.054726       0.000000
    395.888176     284.345278     112.469903       0.000000
    403.894369     294.478960     112.501009       0.000000
    411.156942     307.094290     114.826110       0.000000
    402.620355     314.590775     112.767943       0.000000
    397.704367     323.008549     113.740845       0.000000
    410.842150     340.406372     123.871290       0.000000
    403.275912     337.556773     119.426498       0.000000
    400.031379     358.943773     124.653444       0.000000
    403.227558     371.438833     128.992715       0.000000
    395.727196     367.761865     125.410723       0.000000
    418.555082     395.152635     130.973497       0.000000
    408.820845     394.489340     128.204994       0.000000
    396.021214     396.478949     124.158727       0.000000
    388.950337     405.998568     120.987282       0.000000
    390.365331     417.243665     122.400123       0.000000
    395.371016     425.724814     124.961843       0.000000
    399.318680     443.152832     126.869938       0.000000
    407.048489     469.237133     127.146154       0.000000
    398.445671     452.720486     125.946800       0.000000
    397.721655     472.215608     126.222908       0.000000
    403.328289     491.296516     124.421101       0.000000
    400.000000     500.000000     123.615202       0.000000
    410.000000      10.000000     125.010998       0.000000
    410.516949      25.844519     124.422329       0.000000
    402.662008      32.015567     123.871153       0.000000
    410.854535      35.855399     123.573000       0.000000
    423.682235      58.645276     122.816327       0.000000
    414.314914      57.890192     122.556519       0.000000
    403.690044      60.648089     121.475153       0.000000
    409.193149      93.624994     117.583726       0.000000
    414.175320      86.125006     118.643369       0.000000
    418.566978      94.360155     120.207837       0.000000
    412.797101     102.114136     119.386289       0.000000
    410.395071     122.410073     122.247282       0.000000
    428.639358     139.196384     128.882136       0.000000
    422.056578     146.409141     130.814425       0.000000
    400.796078     155.483566     127.827927       0.000000
    422.624319     165.089475     131.393366       0.000000
    408.507202     160.653269     129.983768       0.000000
    405.737446     174.122530     128.792437       0.000000
    403.405237     197.381594     127.028865       0.000000
    414.291272     197.321741     128.871691       0.000000
    414.389950     206.423595     127.802414       0.000000
    406.216151     221.108324     126.671142       0.000000
    413.483571     215.502376     127.630361       0.000000
    413.603433     244.743538     119.968416       0.000000
    411.689238     253.829586     116.415601       0.000000
    416.666063     261.504029     115.396354       0.000000
    407.836744     265.583905     111.260985       0.000000
    394.701067     266.097997     116.492828       0.000000
    398.751469     274.328996     114.581361       0.000000
    421.485541     302.314627     117.923628       0.000000
    418.359603     312.683918     118.192865       0.000000
    407.310028     329.223184     116.549893       0.000000
    424.069933     335.411182     123.930739       0.000000
    413.949541     354.887391     127.792422       0.000000
    405.492261     350.477449     124.150635       0.000000
    416.696739     365.379751     131.222184       0.000000
    407.818000     362.209776     129.257789       0.000000
    404.573483     380.891139     130.135935       0.000000
    427.014047     391.791926     131.441614       0.000000
    410.641280     407.031399     127.157931       0.000000
    401.957203     403.390783     124.651923       0.000000
    396.903420     410.992912     123.856927       0.000000
    403.252129     417.821649     125.615983       0.000000
    409.357111     436.844295     127.839231       0.000000
    403.782859     428.940779     126.236943       0.000000
    408.801052     446.643778     128.528491       0.000000
    416.864770     474.900291     127.313965       0.000000
    408.615723     482.160578     125.338583       0.000000
    415.950748     491.719255     125.807583       0.000000
    410.000000     500.000000     125.028139       0.000000
    420.000000      10.000000     127.097983       0.000000
    416.267474      18.889147     125.622230       0.000000
    423.226908      27.891044     123.390943       0.000000
    420.239350      50.277007     124.697093       0.000000
    427.580540      44.910788     123.542782       0.000000
    431.835509      54.207663     122.827220       0.000000
    416.267232      66.302649     119.932894       0.000000
    407.013475      75.470069     119.220063       0.000000
    426.568236      81.974876     120.909501       0.000000
    430.775513      92.146983     122.068980       0.000000
    422.127086     102.800392     121.929954       0.000000
    419.256635     114.021064     121.458413       0.000000
    418.488954     132.503980     125.650382       0.000000
    430.250326     127.707588     124.979171       0.000000
    436.514771     146.105532     130.344445       0.000000
    416.892271     154.120901     130.412604       0.000000
    401.084868     166.009785     128.042735       0.000000
    413.929746     168.066903     130.699344       0.000000
    412.724599     180.413970     130.145319       0.000000
    408.514055     189.158969     128.501644       0.000000
    423.719574     210.318721     126.427905       0.000000
    425.400009     220.882889     124.778511       0.000000
    426.294737     230.129428     125.728931       0.000000
    442.577453     247.611284     129.572913       0.000000
    423.909961     239.323868     125.010834       0.000000
    421.604681     248.727626     122.727597       0.000000
    421.978156     269.879319     116.147178       0.000000
    405.923485     279.982295     112.112313       0.000000
    412.451046     298.058419     113.958380       0.000000
    411.939352     319.365416     116.632996       0.000000
    428.281345     316.082476     123.052073       0.000000
    416.780433     331.258828     120.668804       0.000000
    420.876861     323.044013     120.127160       0.000000
    418.465363     345.785948     125.468800       0.000000
    425.530519     352.180416     126.922405       0.000000
    425.125501     361.761668     129.198012       0.000000
    412.747591     373.523729     131.413848       0.000000
    416.275289     385.152592     133.149472       0.000000
    423.455222     374.900094     133.353559       0.000000
    421.263032     407.262941     130.616052       0.000000
    412.222751     418.826532     127.510599       0.000000
    433.444872     420.303583     129.856707       0.000000
    423.189346     427.143390     130.893103       0.000000
    418.646741     438.248479     129.620939       0.000000
    406.906069     458.580108     127.593516       0.000000
    396.332912     463.049819     125.638142       0.000000
    425.629229     469.572611     127.962105       0.000000
    421.564507     483.534845     127.729264       0.000000
    426.233453     491.748215     126.903491       0.000000
    420.000000     500.000000     126.828804       0.000000
    430.000000      10.000000     127.625091       0.000000
    425.607584      19.364117     125.747241       0.000000
    432.272206      26.663905     125.358016       0.000000
    419.567667      38.718168     123.009509       0.000000
    434.893757      64.764758     123.332335       0.000000
    425.672494      67.381528     121.554183       0.000000
    420.829274      74.868814     119.616435       0.000000
    436.488659      76.303415     121.930054       0.000000
    438.775658      99.245098     122.867562       0.000000
    451.204403      88.109602     119.160533       0.000000
    430.475240     107.043227     121.914859       0.000000
    428.061937     116.705487     122.582621       0.000000
    421.963858     124.057802     124.269537       0.000000
    441.540421     123.520192     124.367698       0.000000
    439.018703     134.288614     127.898256       0.000000
    434.621891     164.199465     130.212522       0.000000
    426.290129     174.411406     130.994252       0.000000
    436.819073     175.334709     130.900354       0.000000
    422.576150     182.677237     130.912641       0.000000
    421.730475     191.927039     129.928848       0.000000
    423.691695     200.566259     127.449007       0.000000
    432.129927     204.929570     126.173685       0.000000
    437.976795     226.187541     125.114843       0.000000
    432.834031     240.346722     127.481851       0.000000
    436.801671     258.041230     125.870173       0.000000
    432.083687     249.685896     126.270506       0.000000
    426.403584     282.309568     117.285342       0.000000
    413.259137     273.467636     111.650351       0.000000
    410.592814     288.334828     112.850849       0.000000
    419.749159     291.196769     114.826833       0.000000
    432.091616     294.824945     119.593224       0.000000
    439.976737     321.113881     124.679893       0.000000
    436.785868     335.239750     126.283227       0.000000
    430.832845     326.070684     123.327838       0.000000
    430.068057     342.228694     125.600342       0.000000
    444.535549     344.297526     125.446275       0.000000
    431.342679     368.572172     132.185316       0.000000
    440.426039     385.269768     130.896854       0.000000
    428.757967     382.471874     134.126440       0.000000
    429.044229     402.278614     130.970550       0.000000
    441.954220     424.295427     126.474828       0.000000
    433.569068     430.492025     129.372296       0.000000
    414.194838     428.947952     128.911477       0.000000
    428.460971     439.371364     129.407133       0.000000
    417.726824     450.679194     130.118643       0.000000
    415.393056     465.951421     128.132859       0.000000
    424.667451     458.396953     129.977589       0.000000
    436.782290     466.934818     129.296466       0.000000
    430.592276     480.026696     129.422026       0.000000
    430.000000     500.000000     127.275209       0.000000
    440.000000      10.000000     128.432839       0.000000
    437.645153      18.619879     126.358686       0.000000
    446.951251      22.890089     125.874922       0.000000
    430.150226      35.351558     123.385296       0.000000
    445.238145      47.503379     124.439320       0.000000
    448.878426      62.335170     123.429235       0.000000
    443.409181      70.172208     122.597596       0.000000
    448.999368      78.594871     120.437367       0.000000
    461.998197      81.977134     118.090199       0.000000
    440.280408      87.349426     121.516407       0.000000
    452.998551     110.086437     122.242761       0.000000
    444.577946     106.562746     122.542087       0.000000
    438.066750     114.185002     123.009613       0.000000
    448.053675     156.678807     132.122862       0.000000
    445.659474     147.595574     131.573533       0.000000
    446.276830     174.555930     128.841128       0.000000
    428.165432     154.564530     130.872597       0.000000
    443.533214     183.357746     129.334021       0.000000
    431.051962     186.322426     132.058675       0.000000
    442.101656     203.910182     124.764242       0.000000
    436.356226     216.673953     124.002741       0.000000
    446.085676     217.007462     124.625090       0.000000
    447.087916     228.097902     125.897780       0.000000
    447.655125     257.718332     130.431306       0.000000
    428.734539     264.944409     120.215129       0.000000
    423.918090     256.715018     119.140531       0.000000
    436.732941     283.712729     122.001885       0.000000
    440.879331     291.694647     124.255395       0.000000
    416.924607     281.467267     114.152614       0.000000
    438.175367     301.620238     124.151660       0.000000
    430.077344     304.696116     121.111491       0.000000
    437.914636     311.016907     124.924745       0.000000
    451.318065     337.155097     126.031271       0.000000
    453.408577     346.577496     125.878449       0.000000
    445.695175     359.004430     127.523575       0.000000
    464.131526     361.506275     124.307186       0.000000
    437.146128     351.324886     126.193697       0.000000
    445.074922     396.610420     127.999815       0.000000
    435.471702     395.647743     130.054234       0.000000
    462.329580     386.747051     127.606938       0.000000
    431.380827     411.320775     130.412239       0.000000
    444.722423     415.237436     127.057006       0.000000
    451.684430     433.733036     123.042232       0.000000
    428.622612     449.886991     130.588948       0.000000
    434.702979     457.523401     130.374708       0.000000
    446.617413     452.982015     125.505389       0.000000
    443.993298     461.758886     127.380377       0.000000
    444.408169     474.721321     125.947497       0.000000
    435.554773     491.171172     127.607288       0.000000
    440.000000     500.000000     127.629737       0.000000
    450.000000      10.000000     127.439920       0.000000
    454.679708      18.239692     125.904495       0.000000
    451.842935      30.895392     125.539645       0.000000
    440.851594      31.670285     124.808884       0.000000
    437.823049      42.154906     123.723317       0.000000
    457.375678      49.349843     123.570689       0.000000
    454.143932      71.149871     120.876394       0.000000
    441.391694      56.332643     124.056539       0.000000
    459.172874      92.559971     118.466055       0.000000
    450.545679      97.571550     120.989011       0.000000
    465.254314     116.677013     125.274686       0.000000
    451.753396     120.178731     124.518431       0.000000
    447.725457     129.371282     127.598126       0.000000
    447.011884     138.639047     130.976409       0.000000
    457.701500     156.536678     130.442948       0.000000
    438.861254     155.326008     131.065177       0.000000
    443.991331     164.770853     130.826146       0.000000
    452.239347     185.489594     127.317084       0.000000
    431.887581     195.143002     129.211598       0.000000
    449.433222     196.861279     126.664882       0.000000
    456.426496     223.813820     125.490189       0.000000
    460.111854     215.620244     123.801870       0.000000
    454.962259     234.696830     128.114539       0.000000
    450.934019     242.554586     130.252518       0.000000
    441.372214     235.199552     127.575555       0.000000
    445.209260     275.585652     128.666606       0.000000
    433.755047     274.478272     122.508757       0.000000
    452.861499     291.891509     129.151476       0.000000
    463.404471     286.735092     131.177563       0.000000
    455.336094     303.854848     129.022235       0.000000
    446.995856     298.719049     126.799439       0.000000
    447.412049     310.549533     126.669310       0.000000
    444.461113     330.189829     126.099408       0.000000
    454.529795     327.258754     126.420327       0.000000
    462.041721     339.579284     128.023754       0.000000
    473.447466     361.837204     124.081938       0.000000
    466.365916     371.217860     126.558335       0.000000
    436.037439     360.790617     129.304578       0.000000
    437.598388     376.103485     133.314157       0.000000
    447.713752     378.634707     131.381065       0.000000
    437.845988     404.384853     130.520432       0.000000
    452.174737     405.290907     126.181143       0.000000
    445.938654     443.859011     125.853148       0.000000
    441.189969     434.326463     126.484535       0.000000
    436.668495     444.140416     128.017606       0.000000
    458.078932     456.956272     123.687751       0.000000
    451.402462     466.780555     124.309634       0.000000
    457.523921     473.994077     122.720277       0.000000
    440.496719     483.237818     127.651586       0.000000
    450.000000     500.000000     127.145473       0.000000
    460.000000      10.000000     125.951556       0.000000
    464.298644      17.968785     123.527280       0.000000
    463.202851      35.303084     123.998194       0.000000
    446.861250      38.578284     125.413740       0.000000
    455.827266      40.354005     125.199557       0.000000
    473.966002      48.454340     120.437048       0.000000
    464.976818      54.231613     122.968212       0.000000
    464.279962      72.495785     119.481432       0.000000
    468.527963      89.769555     116.627024       0.000000
    459.023100     101.816936     120.439441       0.000000
    479.529353     118.742655     124.706259       0.000000
    456.296662     133.173802     129.306464       0.000000
    470.736662     126.314704     128.301568       0.000000
    458.835379     145.386496     130.224607       0.000000
    466.996820     158.915476     129.219020       0.000000
    466.980440     177.810925     127.492353       0.000000
    457.022898     177.336624     127.907399       0.000000
    462.838977     186.405728     127.214692       0.000000
    441.061790     192.861578     127.646620       0.000000
    452.950572     206.900029     123.561616       0.000000
    462.241652     204.949085     125.793353       0.000000
    462.795968     229.834457     127.794202       0.000000
    456.030086     250.473617     131.776161       0.000000
    440.028685     268.246829     127.167763       0.000000
    450.059631     268.113044     132.272042       0.000000
    466.363215     258.618110     133.343505       0.000000
    445.798956     284.506493     126.727839       0.000000
    459.692701     270.528933     134.600141       0.000000
    454.294435     279.193309     131.475076       0.000000
    472.360119     294.864187     132.256866       0.000000
    461.229083     296.160430     130.014634       0.000000
    450.163920     319.382150     126.361450       0.000000
    461.245280     310.790107     129.659554       0.000000
    462.974360     319.611041     128.687274       0.000000
    463.198947     330.369966     127.859459       0.000000
    454.981466     358.805455     126.440304       0.000000
    464.091106     350.856854     124.765912       0.000000
    445.517806     369.869149     131.495799       0.000000
    457.578136     378.434528     129.995633       0.000000
    468.676760     394.413434     124.292155       0.000000
    453.012396     388.652965     128.815195       0.000000
    458.270559     396.834094     125.880245       0.000000
    453.101041     422.224140     124.999420       0.000000
    454.092233     447.996126     123.947485       0.000000
    466.198212     451.938297     119.997822       0.000000
    470.262490     462.224330     118.316431       0.000000
    462.437283     465.955380     121.964274       0.000000
    451.217537     480.378746     124.107949       0.000000
    449.496847     490.955096     126.309533       0.000000
    460.000000     500.000000     125.770942       0.000000
    470.000000      10.000000     124.151872       0.000000
    473.486458      18.819588     122.272515       0.000000
    461.090362      26.478653     125.285572       0.000000
    466.433322      44.304697     123.144573       0.000000
    473.115219      38.154186     122.954660       0.000000
    471.671206      65.153286     119.655125       0.000000
    480.047458      73.784706     116.693902       0.000000
    461.229555      62.504844     121.052761       0.000000
    473.613622      80.172596     117.090071       0.000000
    472.174537     100.344062     119.267018       0.000000
    466.037952     108.021894     122.298195       0.000000
    460.956596     125.470403     127.477694       0.000000
    465.497485     133.900780     128.204563       0.000000
    474.819067     165.526337     128.095974       0.000000
    455.449080     165.458566     129.635361       0.000000
    465.814244     168.501204     129.125162       0.000000
    471.913055     186.650403     128.201468       0.000000
    469.551946     195.347115     128.339919       0.000000
    460.109340     196.046149     127.013990       0.000000
    471.258537     206.086769     127.490821       0.000000
    476.986849     212.832606     129.665410       0.000000
    472.532433     221.359948     129.137638       0.000000
    465.565976     238.404262     129.508685       0.000000
    473.558386     243.444443     130.247377       0.000000
    456.712650     261.523008     133.068774       0.000000
    465.941409     248.445842     131.513297       0.000000
    476.043671     275.842036     133.359806       0.000000
    473.206221     285.395648     132.121567       0.000000
    466.269921     276.867924     133.207086       0.000000
    470.677470     304.468976     130.734698       0.000000
    480.859279     305.251132     131.136122       0.000000
    472.868531     315.496044     129.050631       0.000000
    471.426115     324.508034     129.670663       0.000000
    471.455511     341.527251     126.652240       0.000000
    473.833645     352.255561     124.324889       0.000000
    486.831045     372.483616     123.879623       0.000000
    457.659557     367.782570     128.915509       0.000000
    475.876152     370.963006     124.931393       0.000000
    469.291478     379.764006     125.713825       0.000000
    464.412140     403.354787     122.841903       0.000000
    466.148505     414.481971     122.549377       0.000000
    457.272303     413.866899     124.788651       0.000000
    469.551951     423.085662     121.909036       0.000000
    461.004217     437.369453     120.569521       0.000000
    459.872049     428.287636     122.680676       0.000000
    469.633617     441.518448     118.822126       0.000000
    471.767989     472.176052     119.288905       0.000000
    460.247887     490.484244     124.068895       0.000000
    469.949075     490.664004     121.161006       0.000000
    470.000000     500.000000     123.878706       0.000000
    480.000000      10.000000     120.621200       0.000000
    485.106278      18.447393     119.764893       0.000000
    480.810787      27.538113     120.592948       0.000000
    470.715904      29.079595     124.060779       0.000000
    482.628725      46.123025     119.473844       0.000000
    478.958877      56.597746     119.178274       0.000000
    482.318516      64.881458     116.343165       0.000000
    482.454672      83.007932     118.138704       0.000000
    477.424132      90.589808     119.093476       0.000000
    481.298441     100.538088     120.340754       0.000000
    477.649635     109.431871     122.207902       0.000000
    489.172079     116.034343     123.559020       0.000000
    474.757752     136.607130     129.373628       0.000000
    478.628349     145.172526     129.370549       0.000000
    468.802406     146.030176     128.488016       0.000000
    475.979343     155.699240     127.463714       0.000000
    484.408348     165.237674     127.776507       0.000000
    479.976923     174.488444     127.557344       0.000000
    482.112230     185.704742     129.313739       0.000000
    478.985348     194.533521     130.108843       0.000000
    481.096008     204.717013     130.607558       0.000000
    481.810534     227.444579     131.698905       0.000000
    480.473029     237.014439     131.166263       0.000000
    482.593452     249.265945     132.125627       0.000000
    474.011648     252.596041     132.590829       0.000000
    482.596318     258.785472     131.457020       0.000000
    471.503820     266.738245     133.458958       0.000000
    481.822819     268.479417     131.830615       0.000000
    492.139102     286.014838     129.946022       0.000000
    482.432434     285.672100     130.822321       0.000000
    482.052992     314.028165     129.261679       0.000000
    481.441131     323.296943     129.266935       0.000000
    478.234497     331.753996     129.735951       0.000000
    482.826095     342.339363     126.642043       0.000000
    484.255079     351.242592     122.479306       0.000000
    482.823401     360.722828     122.774628       0.000000
    492.037054     364.681153     121.937147       0.000000
    479.445022     385.620018     123.089836       0.000000
    479.927647     394.925321     122.313585       0.000000
    475.776112     404.385832     120.912262       0.000000
    479.889198     413.495342     121.135674       0.000000
    478.386230     425.128372     120.962185       0.000000
    472.542208     432.276776     120.120313       0.000000
    481.480017     434.067783     119.338143       0.000000
    479.337591     443.625098     117.824999       0.000000
    476.293606     454.044869     118.022377       0.000000
    478.780697     478.986814     118.294462       0.000000
    464.181342     480.924180     122.186960       0.000000
    478.545898     488.821377     119.154199       0.000000
    480.000000     500.000000     120.578383       0.000000
    490.000000      10.000000     119.513914       0.000000
    491.951391      24.616770     119.592734       0.000000
    491.256073      35.248534     119.098640       0.000000
    481.637224      36.562166     120.307403       0.000000
    492.399028      45.111081     117.351626       0.000000
    488.542293      56.847592     117.446705       0.000000
    491.376383      65.788603     115.508666       0.000000
    490.250033      75.895065     116.220096       0.000000
    491.968211      84.828638     118.521199       0.000000
    489.994067      94.797537     120.134937       0.000000
    491.016167     106.566679     121.271730       0.000000
    491.901451     124.586192     127.272499       0.000000
    482.651136     128.429282     128.036441       0.000000
    489.938569     139.470611     127.758674       0.000000
    489.501853     148.478087     128.988985       0.000000
    491.007192     157.966150     128.374771       0.000000
    491.175775     171.980832     127.818898       0.000000
    490.796943     181.947900     128.185908       0.000000
    489.834826     194.406990     131.319515       0.000000
    491.086928     208.114573     132.124133       0.000000
    485.054990     217.414256     131.947902       0.000000
    490.987220     226.395638     132.529810       0.000000
    472.754231     230.443787     130.154426       0.000000
    489.590682     236.670733     131.754188       0.000000
    491.179153     246.196718     132.506694       0.000000
    491.455620     255.648610     132.220441       0.000000
    490.764429     266.148469     131.125195       0.000000
    490.722166     276.434103     129.173658       0.000000
    491.766433     295.183329     129.305804       0.000000
    482.020283     295.032214     131.158842       0.000000
    490.622093     305.203096     130.491208       0.000000
    490.689499     316.898518     128.781962       0.000000
    490.892206     326.780855     128.835296       0.000000
    489.850313     336.242406     127.234166       0.000000
    491.996674     344.918179     125.674856       0.000000
    492.609558     354.418947     120.936686       0.000000
    490.691440     381.242623     123.256222       0.000000
    488.995578     393.048841     122.120276       0.000000
    488.308657     402.027394     121.910476       0.000000
    490.575786     411.759504     121.412462       0.000000
    489.367425     421.410704     120.383316       0.000000
    490.849614     431.408440     119.490106       0.000000
    490.310761     441.166938     117.998558       0.000000
    490.629966     450.730868     115.911134       0.000000
    488.674584     459.625154     115.857996       0.000000
    479.662972     464.736673     117.001399       0.000000
    485.421397     471.825845     117.542964       0.000000
    489.966524     480.567265     117.541147       0.000000
    488.745973     490.828458     117.805029       0.000000
    490.000000     500.000000     119.154495       0.000000
    500.000000      10.000000     119.268310       0.000000
    500.000000      20.000000     118.832996       0.000000
    500.000000      30.000000     118.629372       0.000000
    500.000000      40.000000     116.539480       0.000000
    500.000000      50.000000     116.813769       0.000000
    500.000000      60.000000     115.277356       0.000000
    500.000000      70.000000     114.609250       0.000000
    500.000000      80.000000     116.700639       0.000000
    500.000000      90.000000     118.354404       0.000000
    500.000000     100.000000     120.677017       0.000000
    500.000000     110.000000     122.311415       0.000000
    500.000000     120.000000     124.415004       0.000000
    500.000000     130.000000     126.157957       0.000000
    500.000000     140.000000     127.001281       0.000000
    500.000000     150.000000     127.725113       0.000000
    500.000000     160.000000     127.821319       0.000000
    500.000000     170.000000     128.193210       0.000000
    500.000000     180.000000     128.830685       0.000000
    500.000000     190.000000     131.325102       0.000000
    500.000000     200.000000     132.827335       0.000000
    500.000000     210.000000     133.775524       0.000000
    500.000000     220.000000     133.652829       0.000000
    500.000000     230.000000     132.409268       0.000000
    500.000000     240.000000     131.844771       0.000000
    500.000000     250.000000     132.257283       0.000000
    500.000000     260.000000     132.076232       0.000000
    500.000000     270.000000     130.567829       0.000000
    500.000000     280.000000     128.291023       0.000000
    500.000000     290.000000     128.022896       0.000000
    500.000000     300.000000     128.251838       0.000000
    500.000000     310.000000     129.267676       0.000000
    500.000000     320.000000     128.826956       0.000000
    500.000000     330.000000     128.828623       0.000000
    500.000000     340.000000     127.361511       0.000000
    500.000000     350.000000     124.342595       0.000000
    500.000000     360.000000     122.648018       0.000000
    500.000000     370.000000     123.686885       0.000000
    500.000000     380.000000     122.557995       0.000000
    500.000000     390.000000     122.604930       0.000000
    500.000000     400.000000     121.780937       0.000000
    500.000000     410.000000     120.799694       0.000000
    500.000000     420.000000     119.774238       0.000000
    500.000000     430.000000     119.138076       0.000000
    500.000000     440.000000     118.000130       0.000000
    500.000000     450.000000     116.932987       0.000000
    500.000000     460.000000     117.106482       0.000000
    500.000000     470.000000     117.922476       0.000000
    500.000000     480.000000     118.721670       0.000000
    500.000000     490.000000     118.843096       0.000000
    500.000000     500.000000     119.698644       0.000000
      0.000000      10.000000     119.268310       0.000000
      0.000000       0.000000     119.698644       0.000000
     10.000000       0.000000     119.590820       0.000000
      0.000000      20.000000     118.832996       0.000000
      0.000000      30.000000     118.629372       0.000000
      0.000000      40.000000     116.539480       0.000000
      0.000000      50.000000     116.813769       0.000000
      0.000000      60.000000     115.277356       0.000000
      0.000000      70.000000     114.609250       0.000000
      0.000000      80.000000     116.700639       0.000000
      0.000000      90.000000     118.354404       0.000000
      0.000000     100.000000     120.677017       0.000000
      0.000000     110.000000     122.311415       0.000000
      0.000000     120.000000     124.415004       0.000000
      0.000000     130.000000     126.157957       0.000000
      0.000000     140.000000     127.001281       0.000000
      0.000000     150.000000     127.725113       0.000000
      0.000000     160.000000     127.821319       0.000000
      0.000000     170.000000     128.193210       0.000000
      0.000000     180.000000     128.830685       0.000000
      0.000000     190.000000     131.325102       0.000000
      0.000000     200.000000     132.827335       0.000000
      0.000000     210.000000     133.775524       0.000000
      0.000000     220.000000     133.652829       0.000000
      0.000000     230.000000     132.409268       0.000000
      0.000000     240.000000     131.844771       0.000000
      0.000000     250.000000     132.257283       0.000000
      0.000000     260.000000     132.076232       0.000000
      0.000000     270.000000     130.567829       0.000000
      0.000000     280.000000     128.291023       0.000000
      0.000000     290.000000     128.022896       0.000000
      0.000000     300.000000     128.251838       0.000000
      0.000000     310.000000     129.267676       0.000000
      0.000000     320.000000     128.826956       0.000000
      0.000000     330.000000     128.828623       0.000000
      0.000000     340.000000     127.361511       0.000000
      0.000000     350.000000     124.342595       0.000000
      0.000000     360.000000     122.648018       0.000000
      0.000000     370.000000     123.686885       0.000000
      0.000000     380.000000     122.557995       0.000000
      0.000000     390.000000     122.604930       0.000000
      0.000000     400.000000     121.780937       0.000000
      0.000000     410.000000     120.799694       0.000000
      0.000000     420.000000     119.774238       0.000000
      0.000000     430.000000     119.138076       0.000000
      0.000000     440.000000     118.000130       0.000000
      0.000000     450.000000     116.932987       0.000000
      0.000000     460.000000     117.106482       0.000000
      0.000000     470.000000     117.922476       0.000000
      0.000000     480.000000     118.721670       0.000000
      0.000000     490.000000     118.843096       0.000000
     20.000000     510.000000     118.583308       0.000000
     10.000000     510.000000     118.461709       0.000000
      0.000000     500.000000     119.698644       0.000000
     20.000000       0.000000     119.924209       0.000000
     30.000000     510.000000     119.869333       0.000000
     30.000000       0.000000     120.930914       0.000000
     40.000000     510.000000     120.490871       0.000000
     40.000000       0.000000     121.587056       0.000000
     50.000000     510.000000     120.220786       0.000000
     50.000000       0.000000     122.846256       0.000000
     60.000000     510.000000     121.052347       0.000000
     60.000000       0.000000     123.333133       0.000000
     70.000000     510.000000     122.574204       0.000000
     70.000000       0.000000     124.602253       0.000000
     80.000000     510.000000     123.028834       0.000000
     80.000000       0.000000     123.801461       0.000000
     90.000000     510.000000     123.281385       0.000000
     90.000000       0.000000     124.699257       0.000000
    100.000000     510.000000     123.471769       0.000000
    100.000000       0.000000     124.476252       0.000000
    110.000000     510.000000     124.786563       0.000000
    110.000000       0.000000     125.517574       0.000000
    120.000000     510.000000     124.049381       0.000000
    120.000000       0.000000     124.814950       0.000000
    130.000000     510.000000     124.647780       0.000000
    130.000000       0.000000     125.041852       0.000000
    140.000000     510.000000     126.771006       0.000000
    140.000000       0.000000     127.032257       0.000000
    150.000000     510.000000     127.520643       0.000000
    150.000000       0.000000     126.848402       0.000000
    160.000000     510.000000     127.049460       0.000000
    160.000000       0.000000     125.614446       0.000000
    170.000000     510.000000     125.677069       0.000000
    170.000000       0.000000     124.756430       0.000000
    180.000000     510.000000     126.099220       0.000000
    180.000000       0.000000     124.368731       0.000000
    190.000000     510.000000     125.779596       0.000000
    190.000000       0.000000     124.741362       0.000000
    200.000000     510.000000     125.670463       0.000000
    200.000000       0.000000     125.231239       0.000000
    210.000000     510.000000     125.417350       0.000000
    210.000000       0.000000     124.588969       0.000000
    220.000000     510.000000     123.806197       0.000000
    220.000000       0.000000     123.113047       0.000000
    230.000000     510.000000     122.263853       0.000000
    230.000000       0.000000     122.268530       0.000000
    240.000000     510.000000     120.923461       0.000000
    240.000000       0.000000     121.501878       0.000000
    250.000000     510.000000     121.021718       0.000000
    250.000000       0.000000     121.221776       0.000000
    260.000000     510.000000     120.932327       0.000000
    260.000000       0.000000     122.099427       0.000000
    270.000000     510.000000     123.637309       0.000000
    270.000000       0.000000     124.517064       0.000000
    280.000000     510.000000     125.611535       0.000000
    280.000000       0.000000     126.544695       0.000000
    290.000000     510.000000     127.471515       0.000000
    290.000000       0.000000     128.039916       0.000000
    300.000000     510.000000     128.838721       0.000000
    300.000000       0.000000     129.257743       0.000000
    310.000000     510.000000     130.679819       0.000000
    310.000000       0.000000     131.250927       0.000000
    320.000000     510.000000     131.453292       0.000000
    320.000000       0.000000     131.138857       0.000000
    330.000000     510.000000     131.152436       0.000000
    330.000000       0.000000     130.590112       0.000000
    340.000000     510.000000     131.064467       0.000000
    340.000000       0.000000     130.504676       0.000000
    350.000000     510.000000     128.854177       0.000000
    350.000000       0.000000     129.138373       0.000000
    360.000000     510.000000     127.879010       0.000000
    360.000000       0.000000     127.128686       0.000000
    370.000000     510.000000     126.645382       0.000000
    370.000000       0.000000     125.341082       0.000000
    380.000000     510.000000     122.851992       0.000000
    380.000000       0.000000     123.728507       0.000000
    390.000000     510.000000     122.634888       0.000000
    390.000000       0.000000     123.590890       0.000000
    400.000000     510.000000     122.613950       0.000000
    400.000000       0.000000     123.615202       0.000000
    410.000000     510.000000     125.010998       0.000000
    410.000000       0.000000     125.028139       0.000000
    420.000000     510.000000     127.097983       0.000000
    420.000000       0.000000     126.828804       0.000000
    430.000000     510.000000     127.625091       0.000000
    430.000000       0.000000     127.275209       0.000000
    440.000000     510.000000     128.432839       0.000000
    440.000000       0.000000     127.629737       0.000000
    450.000000     510.000000     127.439920       0.000000
    450.000000       0.000000     127.145473       0.000000
    460.000000     510.000000     125.951556       0.000000
    460.000000       0.000000     125.770942       0.000000
    470.000000     510.000000     124.151872       0.000000
    470.000000       0.000000     123.878706       0.000000
    480.000000     510.000000     120.621200       0.000000
    480.000000       0.000000     120.578383       0.000000
    490.000000     510.000000     119.513914       0.000000
    490.000000       0.000000     119.154495       0.000000
    500.000000     510.000000     119.268310       0.000000
    510.000000      10.000000     118.461709       0.000000
    510.000000      20.000000     117.188023       0.000000
    500.000000       0.000000     119.698644       0.000000
    510.000000      30.000000     117.112936       0.000000
    510.000000      40.000000     115.729752       0.000000
    510.000000      50.000000     115.479097       0.000000
    510.000000      60.000000     113.899094       0.000000
    510.000000      70.000000     112.270943       0.000000
    510.000000      80.000000     113.723652       0.000000
    510.000000      90.000000     116.813562       0.000000
    510.000000     100.000000     119.576935       0.000000
    510.000000     110.000000     121.845848       0.000000
    510.000000     120.000000     122.979783       0.000000
    510.000000     130.000000     124.455219       0.000000
    510.000000     140.000000     124.976833       0.000000
    510.000000     150.000000     126.497727       0.000000
    510.000000     160.000000     127.170970       0.000000
    510.000000     170.000000     128.369655       0.000000
    510.000000     180.000000     130.430209       0.000000
    510.000000     190.000000     132.717904       0.000000
    510.000000     200.000000     134.722631       0.000000
    510.000000     210.000000     136.224552       0.000000
    510.000000     220.000000     135.235733       0.000000
