     39.295815      96.143612     110.730111       0.000000
     29.090422      94.037607     111.295646       0.000000
     26.564632     111.126178     115.513725       0.000000
     25.974149     121.397568     119.193291       0.000000
     32.221136     136.336493     121.858577       0.000000
     30.158932     147.753279     126.069654       0.000000
     17.959355     154.017967     128.706288       0.000000
     35.446094     164.544503     130.066161       0.000000
     28.150237     169.637126     131.475813       0.000000
     27.857534     179.779185     133.091527       0.000000
     28.869515     191.109006     134.374985       0.000000
     28.059451     209.497575     136.759676       0.000000
     27.120940     234.848143     134.298209       0.000000
     31.188411     226.718680     134.818656       0.000000
     43.881049     243.407481     129.623134       0.000000
     29.414097     247.220598     131.871913       0.000000
     29.908824     256.775534     130.621344       0.000000
     28.118861     270.866198     127.090959       0.000000
     29.808831     284.206205     126.818488       0.000000
     39.024551     286.220687     126.748389       0.000000
     28.484052     297.063059     125.559822       0.000000
     33.794038     305.392013     125.238712       0.000000
     28.493464     324.727308     131.042144       0.000000
     27.571714     333.731655     130.882183       0.000000
     37.599099     326.659522     131.021248       0.000000
     38.417721     336.516778     132.376652       0.000000
     29.885750     343.016928     131.150717       0.000000
     26.989642     352.160596     129.292991       0.000000
     30.521220     369.740075     130.292181       0.000000
     31.175861     379.003854     128.194091       0.000000
     38.320695     396.219265     127.619941       0.000000
     27.003298     409.431884     125.413356       0.000000
     34.441100     415.535349     126.144435       0.000000
     28.378960     422.533304     123.374267       0.000000
     26.804587     432.438963     121.047659       0.000000
     24.167600     446.073916     119.550794       0.000000
     32.127414     449.507531     122.857678       0.000000
     36.097968     465.619216     124.891524       0.000000
     30.024928     481.732016     123.357852       0.000000
     45.377324     472.644252     126.782690       0.000000
     33.201833     490.540465     122.363704       0.000000
     30.000000     500.000000     119.778852       0.000000
     40.000000      10.000000     118.425456       0.000000
     46.900966      28.475793     115.680941       0.000000
     37.685733      31.020037     112.039129       0.000000
     28.342178      52.248206     111.891073       0.000000
     60.016037      44.343821     116.063112       0.000000
     50.248945      59.024525     112.490900       0.000000
     29.950610      75.213005     110.205061       0.000000
     40.570888      60.196756     111.646762       0.000000
     41.441158      84.754787     109.385864       0.000000
     38.579710     106.331579     110.746693       0.000000
     34.253360     119.192455     115.095082       0.000000
     35.401247     128.412969     117.852498       0.000000
     44.966834     127.862578     115.378624       0.000000
     41.701838     136.920829     118.588335       0.000000
     26.713211     156.235839     130.597531       0.000000
     45.528730     149.829042     121.473140       0.000000
     39.001806     154.456583     126.534724       0.000000
     42.964546     169.809939     129.195259       0.000000
     36.974705     207.542211     134.849409       0.000000
     30.814974     199.936227     135.668390       0.000000
     33.832620     218.095461     135.633088       0.000000
     40.489570     225.263640     134.051244       0.000000
     51.961718     238.311039     126.776741       0.000000
     38.219450     250.371119     130.315708       0.000000
     46.922773     255.430211     129.659829       0.000000
     46.521891     267.629060     130.456150       0.000000
     39.207837     261.856104     129.621562       0.000000
     37.613679     271.148436     128.605818       0.000000
     42.869306     302.525791     124.876784       0.000000
     27.609050     313.742491     129.440772       0.000000
     52.314511     299.153558     125.432377       0.000000
     37.471865     315.211986     127.750272       0.000000
     49.608272     324.736907     129.090962       0.000000
     48.862963     334.516520     130.752296       0.000000
     44.355365     345.511168     131.094964       0.000000
     36.565890     351.108851     131.442178       0.000000
     32.168432     360.741406     130.212262       0.000000
     29.590423     399.521642     126.981533       0.000000
     40.523924     379.875244     129.602171       0.000000
     35.928410     406.755238     127.665662       0.000000
     43.922666     420.078311     127.701259       0.000000
     40.015799     428.627510     121.841133       0.000000
     33.914848     438.434769     122.310516       0.000000
     39.808216     444.399573     126.247340       0.000000
     50.840909     451.772187     130.338404       0.000000
     27.309029     470.470293     124.152317       0.000000
     55.065052     467.204937     129.949243       0.000000
     45.193640     461.390062     127.121876       0.000000
     38.832337     480.110303     125.748763       0.000000
     40.000000     500.000000     120.095826       0.000000
     50.000000      10.000000     118.968856       0.000000
     45.399045      19.128385     117.913830       0.000000
     40.727508      39.593460     112.894496       0.000000
     66.284200      27.520931     119.328630       0.000000
     50.772089      49.682365     114.357483       0.000000
     61.648787      61.944887     114.779382       0.000000
     45.832257      68.200206     110.624917       0.000000
     40.102431      75.822956     110.521236       0.000000
     50.509340      89.664409     109.878303       0.000000
     52.172156     107.157089     110.043431       0.000000
     46.257166     119.140392     113.201237       0.000000
     51.381729     139.445995     116.157836       0.000000
     38.076775     144.435480     123.231160       0.000000
     54.317092     164.188653     124.355231       0.000000
     45.566722     161.420418     126.585271       0.000000
     61.203113     172.029489     121.746903       0.000000
     53.119292     178.585770     126.339997       0.000000
     39.450958     178.466979     130.488921       0.000000
     38.117837     189.414144     132.953525       0.000000
     42.740890     200.879405     132.795725       0.000000
     52.743704     208.430143     126.971560       0.000000
     45.338610     210.701072     132.220815       0.000000
     48.619514     219.944713     131.575013       0.000000
     51.527823     247.580147     127.273309       0.000000
     59.711615     244.029807     124.091412       0.000000
     61.390029     255.525525     125.504506       0.000000
     44.990418     279.814036     129.062789       0.000000
     37.330770     295.043501     125.672020       0.000000
     53.745559     275.463400     129.833069       0.000000
     62.823425     274.111458     127.984145       0.000000
     48.888452     289.935434     126.682568       0.000000
     46.924508     314.423322     126.958906       0.000000
     57.428612     331.742013     129.093817       0.000000
     42.256700     359.823390     130.709914       0.000000
     57.896659     361.185132     131.842023       0.000000
     50.860301     351.935366     131.738603       0.000000
     48.567114     376.171320     131.937592       0.000000
     39.626898     369.041519     130.723612       0.000000
     33.534285     388.502649     128.046394       0.000000
     46.374112     401.615931     128.926846       0.000000
     44.125606     410.807805     129.462848       0.000000
     54.903997     418.415498     130.390258       0.000000
     46.907290     428.719039     127.985171       0.000000
     38.150400     455.890022     125.489912       0.000000
     61.621133     438.179664     134.162245       0.000000
     59.929126     449.267040     134.561647       0.000000
     65.303161     471.720228     130.237514       0.000000
     49.283764     480.749391     125.708335       0.000000
     42.803596     488.632719     124.840149       0.000000
     50.000000     500.000000     120.206459       0.000000
     60.000000      10.000000     120.035799       0.000000
     55.734156      30.757087     117.073241       0.000000
     51.581531      40.107785     114.872137       0.000000
     63.729394      36.240656     118.119846       0.000000
     69.541200      50.044010     118.569186       0.000000
     59.085800      53.287334     114.793887       0.000000
     56.503642      70.104432     113.186386       0.000000
     48.400572      98.560714     109.584495       0.000000
     64.623594      86.782630     112.533231       0.000000
     58.017988      97.931189     109.820462       0.000000
     68.220138     106.945937     109.751359       0.000000
     59.851542     112.499717     109.510267       0.000000
     68.434808     117.138133     110.111435       0.000000
     56.608429     121.756751     111.791327       0.000000
     57.628140     145.889240     117.237354       0.000000
     53.165042     154.941807     121.223444       0.000000
     63.099982     154.816326     119.943792       0.000000
     58.186293     188.198394     124.980205       0.000000
     47.395966     187.699562     128.832676       0.000000
     54.034019     197.643001     126.952026       0.000000
     61.956858     204.534848     122.540090       0.000000
     60.678916     214.556492     124.211907       0.000000
     46.369127     231.197360     130.202543       0.000000
     63.966517     236.288082     121.429900       0.000000
     72.580099     238.671393     117.991144       0.000000
     67.739308     249.566274     123.211823       0.000000
     54.165125     262.305740     129.082597       0.000000
     71.725453     274.295375     126.221614       0.000000
     57.745037     284.507478     126.266975       0.000000
     60.070518     293.408195     125.541377       0.000000
     56.492499     316.626907     127.602618       0.000000
     67.304218     311.825161     127.223702       0.000000
     73.354375     324.872213     125.253516       0.000000
     65.033290     351.644620     131.301101       0.000000
     65.078207     368.668443     134.676317       0.000000
     49.831297     366.473391     131.411062       0.000000
     62.692029     381.893576     135.274248       0.000000
     53.679379     384.817513     132.559519       0.000000
     52.329779     395.114500     131.607380       0.000000
     59.644301     400.559778     134.118310       0.000000
     58.740770     409.778530     132.983353       0.000000
     64.247936     418.850375     133.355557       0.000000
     65.216302     428.415146     132.288664       0.000000
     52.973342     443.311277     132.982017       0.000000
     45.904368     438.015294     129.182311       0.000000
     57.026111     458.146640     132.542543       0.000000
     75.284526     470.683980     131.650759       0.000000
     57.959873     481.656245     128.020873       0.000000
     54.744671     490.322242     122.025768       0.000000
     60.000000     500.000000     121.622536       0.000000
     70.000000      10.000000     121.971173       0.000000
     58.184318      22.111806     118.619577       0.000000
     70.087097      19.229889     120.871597       0.000000
     79.908302      54.268744     120.516730       0.000000
     69.637522      59.245293     118.778021       0.000000
     73.920682      68.355765     119.066393       0.000000
     52.675394      79.176079     111.332345       0.000000
     65.628248      71.574960     115.100413       0.000000
     73.453481      78.504995     116.809392       0.000000
     67.311955      95.321308     111.561546       0.000000
     75.559581     111.900893     112.043353       0.000000
     76.168444     121.208202     112.913995       0.000000
     66.880447     127.141813     113.252698       0.000000
     79.356172     144.284362     118.270276       0.000000
     58.117393     131.176355     114.961768       0.000000
     65.057746     140.885910     115.283316       0.000000
     76.483875     171.761026     119.825254       0.000000
     84.299350     162.624134     119.929353       0.000000
     63.476788     180.971398     121.779826       0.000000
     64.560143     195.086886     122.219246       0.000000
     64.985188     222.299034     121.807002       0.000000
     58.372743     227.927329     124.979777       0.000000
     76.096337     221.854579     117.161786       0.000000
     70.195639     229.987039     118.550210       0.000000
     81.556217     241.165266     116.600844       0.000000
     70.806347     258.442597     124.384666       0.000000
     80.869182     251.563352     119.108341       0.000000
     64.076189     264.302330     126.733734       0.000000
     79.097300     292.422147     124.307926       0.000000
     67.153793     282.074979     125.981509       0.000000
     57.575640     307.343913     126.650654       0.000000
     66.655053     302.600429     125.930884       0.000000
     66.755181     331.515303     127.366187       0.000000
     64.122379     322.339696     126.580632       0.000000
     63.144121     341.934167     129.553964       0.000000
     73.568848     348.901636     129.571557       0.000000
     57.417745     374.306280     135.226900       0.000000
     60.621389     391.336398     135.266462       0.000000
     68.674257     397.391659     135.242039       0.000000
     70.130855     387.008377     136.221456       0.000000
     68.308945     407.565590     133.027973       0.000000
     74.160793     423.081660     131.475919       0.000000
     75.438760     432.443011     131.079601       0.000000
     69.191750     444.465693     134.800674       0.000000
     66.944048     461.027238     132.176799       0.000000
     79.588446     461.538717     131.218317       0.000000
     70.421821     480.752076     129.318639       0.000000
     65.752111     489.466849     126.383111       0.000000
     77.181027     487.579062     128.167873       0.000000
     70.000000     500.000000     124.139160       0.000000
     80.000000      10.000000     123.580082       0.000000
     91.371429      19.866159     123.692010       0.000000
     80.660295      24.548750     122.371887       0.000000
     74.589613      32.177179     120.560000       0.000000
     81.793167      45.259835     122.497483       0.000000
     82.919239      62.907879     121.616465       0.000000
     90.677984      70.584468     126.939565       0.000000
     82.408893      74.416956     122.053089       0.000000
     82.887971      92.856757     119.314827       0.000000
     74.858703      87.694986     116.216636       0.000000
     75.486609      98.666202     113.463699       0.000000
     85.337961     115.632531     116.800776       0.000000
     83.359367     127.292586     115.462000       0.000000
     88.361936     148.136551     119.886885       0.000000
     84.800403     137.137037     117.733247       0.000000
     71.452689     148.968629     118.191679       0.000000
     74.907512     162.641963     120.643020       0.000000
     74.416774     191.419693     119.007054       0.000000
     84.746521     189.755487     118.196527       0.000000
     69.915146     211.750253     121.395255       0.000000
     81.803514     209.443415     117.666391       0.000000
     91.164951     208.927897     117.361059       0.000000
     82.672823     229.739327     113.977605       0.000000
     97.106479     235.059559     111.909279       0.000000
     83.686348     260.923524     120.725027       0.000000
     76.152280     265.999244     123.090519       0.000000
     78.251082     282.420153     124.669599       0.000000
     88.135489     286.971668     123.927087       0.000000
     69.875834     291.285146     125.099725       0.000000
     80.017220     302.942711     123.890006       0.000000
     87.054488     311.045600     124.958349       0.000000
     76.416547     311.129527     125.795441       0.000000
     81.589069     320.774025     124.586477       0.000000
     54.237607     342.925990     132.002372       0.000000
     82.807491     343.358435     126.294422       0.000000
     70.779874     358.916088     132.341295       0.000000
     88.332803     372.563606     132.942759       0.000000
     81.024570     381.565400     133.544107       0.000000
     74.566214     375.212905     134.174064       0.000000
     77.359225     402.294271     133.438636       0.000000
     85.571281     399.639062     130.491716       0.000000
     77.938124     413.598453     132.222100       0.000000
     55.223393     429.159282     132.533265       0.000000
     87.066847     441.012274     128.899128       0.000000
     73.007077     454.132431     133.140158       0.000000
     88.522457     459.164780     128.987176       0.000000
     85.262342     468.924184     130.359232       0.000000
     79.388573     478.716864     129.912944       0.000000
     86.913733     489.689837     126.195849       0.000000
     80.000000     500.000000     125.182592       0.000000
     90.000000      10.000000     124.288619       0.000000
     84.174671      32.983190     121.582993       0.000000
     90.242202      41.408937     123.623429       0.000000
     72.405694      41.299432     120.132610       0.000000
     88.744709      52.991391     124.646367       0.000000
     93.433591      60.286993     127.820396       0.000000
    104.312453      63.345679     130.054763       0.000000
     93.879693      80.636668     127.061981       0.000000
     85.156941      84.428503     123.232583       0.000000
     89.909608     101.948544     119.444627       0.000000
     81.818051     104.861913     115.505196       0.000000
     93.972065     121.122000     119.403832       0.000000
     93.027667     130.803709     119.613088       0.000000
     96.773622     142.159353     122.143402       0.000000
     75.013718     132.601519     115.225430       0.000000
     89.383589     171.524487     119.047430       0.000000
     81.059671     154.064643     119.370000       0.000000
     72.729049     181.286979     119.243687       0.000000
     94.666373     189.081739     118.014617       0.000000
    104.027744     189.537112     119.394016       0.000000
     75.257860     201.825280     119.157086       0.000000
     84.053583     199.315050     117.262895       0.000000
    100.184615     214.639470     114.819414       0.000000
     85.087468     220.628024     114.792846       0.000000
     92.697830     260.669395     116.301963       0.000000
     90.844110     242.674273     112.826678       0.000000
     91.505540     269.452517     119.479498       0.000000
    122.426836     279.932856     114.598766       0.000000
    102.751178     279.962280     118.404824       0.000000
     82.997510     272.756685     123.673122       0.000000
     96.656981     308.671838     123.639096       0.000000
     88.845168     326.134610     124.509775       0.000000
     80.743495     334.465519     124.656587       0.000000
     72.625803     339.999470     128.078235       0.000000
     91.492854     353.894067     128.913895       0.000000
     81.566269     354.758291     129.627466       0.000000
     96.975018     377.389676     130.961370       0.000000
     76.374953     366.075860     134.160064       0.000000
     80.266924     391.057277     134.603291       0.000000
     94.975980     396.986779     127.530553       0.000000
     85.536322     408.835348     128.915132       0.000000
     93.207152     424.435041     127.690911       0.000000
     84.415478     419.726831     130.411839       0.000000
     78.320003     441.537209     132.060073       0.000000
     85.828891     429.657810     129.337109       0.000000
     81.882752     450.633055     130.819877       0.000000
     93.599887     470.092022     127.089643       0.000000
     89.408621     478.702572     128.224424       0.000000
     95.763411     487.390952     125.191892       0.000000
     90.000000     500.000000     126.225255       0.000000
    100.000000      10.000000     124.290300       0.000000
    100.369406      20.976223     124.208599       0.000000
     93.446970      29.331769     124.300958       0.000000
     98.787653      36.757849     124.731100       0.000000
     97.994641      51.324281     128.252716       0.000000
    104.378801      43.527524     128.785294       0.000000
    106.955118      53.077013     130.461979       0.000000
     99.634161      72.264726     129.739081       0.000000
    101.739716      87.328366     128.127364       0.000000
     95.519026      94.835779     123.250174       0.000000
    103.439510     105.455396     124.323551       0.000000
     92.558361     110.666723     119.296360       0.000000
    104.878779     128.627807     124.989491       0.000000
    100.807108     114.024039     123.132446       0.000000
     64.860122     163.773879     121.787079       0.000000
     94.365693     162.442454     121.371288       0.000000
     85.070473     180.109242     119.040239       0.000000
     95.457279     179.791451     118.951070       0.000000
    116.145195     198.518033     121.416809       0.000000
    107.926934     202.593587     118.196124       0.000000
     99.041891     200.359798     117.460329       0.000000
    107.821166     237.080634     111.262777       0.000000
    103.065938     225.716459     112.125799       0.000000
    101.016533     257.894430     112.866837       0.000000
    102.261861     267.338673     114.341593       0.000000
     92.369074     278.725084     121.178259       0.000000
     96.858296     288.132479     121.761845       0.000000
    113.410775     284.003789     117.071057       0.000000
    105.835991     290.468589     119.527088       0.000000
     88.659556     296.717274     123.596147       0.000000
    101.610768     300.838710     121.976675       0.000000
     97.875360     329.534062     124.548937       0.000000
    112.465325     344.322948     123.296452       0.000000
     93.369897     340.814873     126.354516       0.000000
    101.973163     345.319072     125.413138       0.000000
     86.479459     362.366276     131.646270       0.000000
     97.296800     368.190429     131.275073       0.000000
     89.935263     385.097635     131.202889       0.000000
    110.187147     380.710725     126.061502       0.000000
    102.751987     390.540882     127.789785       0.000000
     98.521634     404.547423     123.897030       0.000000
     92.705108     414.368991     126.519880       0.000000
    111.525644     418.719172     120.240765       0.000000
    101.353916     425.994436     122.957641       0.000000
    106.086553     454.125972     123.554806       0.000000
     99.851698     462.009418     125.007170       0.000000
     94.659483     453.104685     125.656754       0.000000
    101.985687     480.722214     124.248328       0.000000
    104.665447     489.706898     124.168089       0.000000
    100.000000     500.000000     124.594549       0.000000
    110.000000      10.000000     124.894068       0.000000
    111.222615      18.869193     123.521655       0.000000
    104.148757      29.195234     124.656905       0.000000
    116.462476      28.560743     126.086904       0.000000
    115.978535      49.761065     130.332563       0.000000
    115.033968      60.564360     131.034150       0.000000
    113.415668      70.448702     132.443669       0.000000
    107.060774      78.632847     131.582117       0.000000
    116.616588      79.048392     132.122380       0.000000
    109.003718      96.736223     127.114564       0.000000
    114.509999     125.620963     127.597207       0.000000
    111.279620     110.769927     127.635686       0.000000
    115.639943     136.654893     124.776757       0.000000
    105.503727     137.275121     122.486702       0.000000
    110.238826     145.318428     122.844985       0.000000
    122.738891     169.453311     127.527651       0.000000
    106.720636     159.142529     123.897879       0.000000
    101.068182     171.739586     120.350549       0.000000
    105.576111     179.739246     121.203609       0.000000
    128.317247     197.921953     127.092868       0.000000
    110.283846     213.541124     117.226363       0.000000
    117.321637     221.022499     116.184139       0.000000
     94.020738     223.124956     113.642386       0.000000
     91.028915     251.868390     114.627556       0.000000
    118.177140     254.571361     109.691742       0.000000
    126.250654     258.054635     112.393095       0.000000
    111.168540     273.708949     114.013909       0.000000
    118.494812     293.245045     118.210326       0.000000
    113.911211     300.781432     120.307831       0.000000
    108.789037     308.392510     121.629131       0.000000
    104.695695     316.516425     123.598976       0.000000
    107.105453     336.633809     122.978188       0.000000
    121.208948     337.095002     121.271626       0.000000
    115.122997     330.421235     121.594351       0.000000
    106.939274     353.124372     126.634574       0.000000
    100.035720     359.046728     127.961117       0.000000
    109.434965     364.516613     127.916970       0.000000
    105.596488     372.646516     129.386323       0.000000
    111.814890     389.787448     123.348867       0.000000
    106.591404     400.433172     122.883797       0.000000
    102.163430     416.998840     123.444908       0.000000
    108.044678     409.461202     121.661055       0.000000
    121.581499     430.322201     119.335819       0.000000
    111.773418     429.658745     120.366280       0.000000
    100.487023     445.996515     124.170165       0.000000
    112.363782     461.970147     121.268313       0.000000
    129.662873     480.776413     122.877569       0.000000
    102.215187     470.997954     124.295492       0.000000
    110.926223     481.473462     123.507271       0.000000
    110.000000     500.000000     125.313438       0.000000
    120.000000      10.000000     125.538658       0.000000
    122.257491      21.357599     124.655701       0.000000
    133.797303      27.524968     125.884653       0.000000
    112.410820      37.949539     128.019176       0.000000
    128.188372      49.331189     127.725893       0.000000
    136.245499      57.936678     128.211026       0.000000
    134.248480      67.759830     131.696639       0.000000
    122.944222      72.187937     132.057878       0.000000
    116.063191      89.591879     130.162527       0.000000
    116.003577     103.290210     129.558468       0.000000
    107.425944     119.535130     125.792347       0.000000
    123.648597     125.669094     128.228198       0.000000
    138.896468     123.145508     128.980592       0.000000
    100.539705     151.395271     123.873010       0.000000
    115.154124     156.275592     125.656834       0.000000
    139.299511     154.174779     131.192177       0.000000
    113.178128     176.459589     125.180221       0.000000
    110.558190     167.486301     124.556544       0.000000
    137.839452     206.541239     128.783471       0.000000
    117.556532     207.438525     121.322990       0.000000
    125.265200     215.913421     120.306514       0.000000
    125.604077     225.634271     115.612022       0.000000
    127.981146     234.228644     112.947139       0.000000
    101.205172     244.184606     109.528969       0.000000
    108.911226     250.458338     109.368117       0.000000
    111.497645     261.749212     111.120341       0.000000
    124.479897     248.265309     112.010739       0.000000
    120.410083     266.268670     110.542042       0.000000
    129.140697     287.152051     116.372245       0.000000
    130.507046     302.252547     119.568644       0.000000
    115.647881     321.057029     121.701961       0.000000
     95.095553     317.549939     124.658000       0.000000
    124.606777     325.666878     122.147603       0.000000
    130.118806     352.296158     125.994346       0.000000
    124.994895     345.028142     123.814449       0.000000
    117.783069     353.582307     125.120313       0.000000
    130.005977     386.203397     125.172577       0.000000
    123.253777     360.615976     127.770388       0.000000
    116.098461     370.671321     126.983929       0.000000
    115.648778     401.995601     121.444274       0.000000
    123.093155     410.614759     120.557286       0.000000
    122.558619     420.808037     119.589496       0.000000
    131.352396     435.333291     117.928044       0.000000
     95.715688     433.611012     126.028695       0.000000
    110.654618     446.427083     122.371692       0.000000
    110.970164     472.320324     122.415449       0.000000
    126.195471     471.914437     121.367439       0.000000
    138.897117     481.526149     122.286216       0.000000
    113.572171     491.517525     124.638161       0.000000
    120.000000     500.000000     125.297054       0.000000
    130.000000      10.000000     124.772317       0.000000
    137.465152      18.752178     124.918524       0.000000
    127.570826      34.775083     126.589734       0.000000
    147.145910      56.115623     128.808087       0.000000
    122.138914      41.917963     128.005611       0.000000
    130.629465      79.381751     131.520081       0.000000
    125.272369      61.956877     131.036229       0.000000
    124.151577      85.831758     131.768697       0.000000
    127.906385      96.248438     130.761818       0.000000
    118.628364     116.012837     129.295868       0.000000
    127.972397     117.009029     129.628562       0.000000
    142.526111     131.701201     128.939283       0.000000
    132.387727     130.686590     128.346009       0.000000
    119.647867     146.096251     125.644264       0.000000
    123.469640     159.861022     127.947352       0.000000
    132.552268     163.613172     131.390878       0.000000
    124.533177     179.480124     128.647414       0.000000
    112.798924     186.889765     123.194509       0.000000
    136.818068     197.203992     130.239119       0.000000
    147.412441     204.351160     128.755675       0.000000
    126.564134     206.960069     124.204347       0.000000
    135.442212     213.296036     123.160326       0.000000
    136.447305     231.640575     116.075667       0.000000
    131.273616     242.661099     113.920332       0.000000
    115.613786     231.478632     113.257986       0.000000
    117.269905     242.459103     110.294816       0.000000
    133.856561     263.708353     114.819378       0.000000
    135.136624     277.000520     116.648139       0.000000
    137.422183     291.676692     118.726329       0.000000
    134.441724     322.766302     121.711349       0.000000
    142.045884     300.577998     122.013751       0.000000
    105.947560     325.651284     122.780124       0.000000
    121.086149     307.368013     119.637099       0.000000
    132.444477     365.643120     128.214879       0.000000
    128.948408     373.835379     126.803291       0.000000
    136.300631     380.747714     129.729611       0.000000
    144.593171     379.212096     132.930450       0.000000
    121.585795     380.556300     126.368911       0.000000
    119.843343     393.898290     121.585443       0.000000
    126.366971     401.146627     120.998198       0.000000
    134.734128     406.587421     123.286628       0.000000
    131.439270     415.715351     120.954049       0.000000
    116.922126     439.731080     120.489627       0.000000
    104.734658     437.598315     123.176534       0.000000
    119.341983     477.640871     123.515632       0.000000
    131.230478     460.198459     117.828443       0.000000
    121.391161     463.831589     120.882812       0.000000
    135.108647     469.223149     119.595663       0.000000
    123.602833     488.813333     123.299335       0.000000
    130.000000     500.000000     124.545740       0.000000
    140.000000      10.000000     124.815475       0.000000
    143.732426      27.888425     126.434654       0.000000
    139.657235      49.320301     127.470415       0.000000
    133.979460      41.697751     127.316635       0.000000
    144.527166      65.002170     127.683270       0.000000
    158.839193      65.224816     127.636729       0.000000
    141.200672      74.469193     129.497407       0.000000
    137.089975      91.643070     131.138821       0.000000
    146.405765      98.391469     129.749169       0.000000
    126.239730     105.114312     129.875940       0.000000
    136.112097     102.341466     129.505168       0.000000
    147.999963     119.957224     130.555817       0.000000
    151.003287     134.412271     132.443792       0.000000
    129.882132     139.495166     129.139948       0.000000
    128.347155     150.347859     129.821157       0.000000
    137.036933     144.871607     130.880126       0.000000
    121.370993     190.484072     126.120063       0.000000
    148.409530     183.012663     132.001928       0.000000
    130.424360     189.100751     129.552519       0.000000
    145.994566     194.177146     130.533853       0.000000
    155.454902     200.157171     128.128455       0.000000
    132.822807     221.497971     119.133521       0.000000
    143.248547     222.837036     120.680798       0.000000
    139.227575     251.897863     115.395323       0.000000
    144.861581     259.279159     116.642185       0.000000
    127.755342     271.286376     113.494676       0.000000
    144.285627     278.636239     119.470109       0.000000
    145.896357     292.106574     122.037864       0.000000
    142.698117     312.883010     120.547309       0.000000
    162.000769     300.760762     124.358338       0.000000
    133.277922     311.243078     120.417902       0.000000
    125.384087     316.650462     120.221199       0.000000
    139.795147     331.446195     123.885385       0.000000
    134.211080     342.845730     123.902657       0.000000
    142.734542     349.541258     127.615451       0.000000
    143.354765     339.668789     125.588661       0.000000
    141.789635     369.989382     131.624940       0.000000
    142.477108     389.950683     129.418366       0.000000
    133.682765     394.472473     123.094992       0.000000
    143.342960     411.701227     123.421628       0.000000
    152.930465     428.895457     118.924069       0.000000
    147.677330     439.465835     115.668700       0.000000
    131.375049     425.686395     119.257107       0.000000
    132.535890     450.784560     116.893341       0.000000
    118.094205     452.840120     120.216925       0.000000
    126.416964     443.099485     118.506756       0.000000
    145.248781     475.284709     120.229697       0.000000
    155.362570     483.574327     120.452332       0.000000
    137.924834     490.808046     123.475297       0.000000
    140.000000     500.000000     124.146741       0.000000
    150.000000      10.000000     125.336361       0.000000
    147.412405      19.114008     126.499128       0.000000
    142.747426      38.247633     126.968114       0.000000
    155.775461      38.304485     127.711538       0.000000
    161.460415      45.258939     128.551850       0.000000
    148.039410      45.895474     127.826354       0.000000
    142.087108      83.877227     131.101258       0.000000
    152.096731      73.270556     127.338966       0.000000
    150.352593      87.231147     129.559403       0.000000
    158.935621      93.813008     127.848209       0.000000
    154.428223     112.585271     130.866042       0.000000
    135.722780     111.557035     130.111820       0.000000
    166.823421     126.488479     133.663505       0.000000
    149.299251     143.970976     133.255683       0.000000
    159.208411     144.566436     133.398346       0.000000
    141.951362     162.755503     133.560412       0.000000
    141.255059     173.378700     132.933875       0.000000
    132.348616     174.391704     130.968450       0.000000
    154.743858     191.348114     130.361741       0.000000
    162.898132     195.068506     128.796928       0.000000
    144.377766     214.150214     124.356756       0.000000
    155.001034     209.581241     125.633958       0.000000
    155.767999     229.244170     118.333230       0.000000
    165.031595     234.414039     117.478254       0.000000
    140.132531     240.402933     115.465528       0.000000
    151.922523     249.920001     117.104004       0.000000
    150.046072     268.175980     119.137911       0.000000
    161.676708     278.653312     124.658864       0.000000
    140.790167     269.494468     116.959967       0.000000
    151.081618     310.171188     122.955582       0.000000
    160.149393     310.652026     123.253254       0.000000
    130.190579     333.035857     122.681520       0.000000
    156.231309     321.132656     123.464487       0.000000
    159.552860     342.679156     127.799715       0.000000
    152.700720     332.036417     125.396897       0.000000
    150.526076     344.923650     127.744873       0.000000
    137.662436     358.071873     129.596702       0.000000
    144.277292     402.854423     127.597504       0.000000
    154.365941     388.931561     135.235879       0.000000
    140.260575     420.341633     120.501894       0.000000
    164.098928     430.659040     119.185701       0.000000
    159.950617     449.001490     113.818837       0.000000
    139.298183     430.616429     117.347208       0.000000
    139.217127     443.267692     115.872887       0.000000
    148.052740     450.721897     114.978797       0.000000
    142.334421     458.494158     115.216616       0.000000
    158.122833     470.858726     117.778687       0.000000
    165.373349     481.130006     121.346675       0.000000
    147.187653     489.724276     122.934917       0.000000
    150.000000     500.000000     123.542755       0.000000
    160.000000      10.000000     126.121681       0.000000
    158.191566      18.961597     127.474102       0.000000
    153.142021      28.398421     127.667302       0.000000
    168.771211      34.845742     128.524589       0.000000
    175.920585      52.439836     127.406644       0.000000
    157.348948      55.505264     128.913998       0.000000
    170.987897      67.591449     126.197119       0.000000
    163.964944      73.366325     126.751807       0.000000
    159.224459      81.082248     128.319161       0.000000
    157.145852     103.856171     130.377922       0.000000
    161.622422     118.525396     132.475099       0.000000
    155.730529     126.258990     131.908465       0.000000
    171.660821     134.316320     134.237927       0.000000
    161.923971     135.119158     133.161027       0.000000
    163.675093     152.908936     134.094321       0.000000
    150.618902     173.765044     133.396263       0.000000
    138.873503     182.861128     131.376345       0.000000
    162.570498     172.610588     133.251138       0.000000
    161.768894     182.354710     134.245022       0.000000
    163.390632     214.040132     123.029941       0.000000
    163.956939     205.215850     125.376247       0.000000
    192.923483     220.884006     116.587954       0.000000
    162.909036     222.962791     119.041450       0.000000
    170.551989     242.738782     118.876389       0.000000
    145.970618     231.934121     117.393072       0.000000
    163.066160     249.047144     116.956000       0.000000
    169.359553     273.798007     125.684578       0.000000
    153.433378     286.278125     124.135964       0.000000
    153.325845     297.188135     122.342113       0.000000
    172.409824     296.357856     127.511213       0.000000
    171.490633     311.058005     125.015345       0.000000
    147.023570     322.113090     123.176144       0.000000
    162.631042     332.731787     126.139917       0.000000
    162.058287     352.202683     131.306257       0.000000
    151.638864     354.555986     131.555065       0.000000
    153.505848     368.044190     133.780295       0.000000
    145.496016     361.689748     132.539794       0.000000
    153.760562     377.380419     135.715979       0.000000
    151.797338     397.811452     131.744509       0.000000
    152.950936     407.275287     127.191765       0.000000
    169.753475     413.557474     127.911777       0.000000
    149.542904     419.623415     121.857436       0.000000
    168.240259     439.184314     115.032279       0.000000
    180.008357     440.672594     117.352116       0.000000
    169.108105     450.958098     115.385962       0.000000
    174.508019     460.370501     118.284782       0.000000
    154.016965     458.013200     115.050045       0.000000
    171.559041     470.715799     120.503976       0.000000
    161.042942     490.434572     122.447896       0.000000
    160.000000     500.000000     124.588686       0.000000
    170.000000      10.000000     126.215441       0.000000
    162.736691      28.142044     128.444595       0.000000
    174.018400      27.142392     128.769898       0.000000
    187.763842      37.394099     126.576723       0.000000
    178.618203      38.624340     127.748893       0.000000
    170.606415      45.055844     127.906123       0.000000
    166.799747      57.685949     127.907693       0.000000
    170.462203      79.784234     126.313190       0.000000
    168.265955      88.738432     127.450100       0.000000
    167.814150      98.699472     129.789521       0.000000
    185.798220     123.108368     135.362814       0.000000
    144.658090     109.123192     129.051066       0.000000
    170.940000     117.518491     133.620789       0.000000
    168.498991     143.949418     133.555989       0.000000
    155.142531     163.058461     133.921628       0.000000
    149.080335     153.041711     133.102696       0.000000
    182.968228     175.363916     131.578615       0.000000
    172.255025     174.620466     134.264082       0.000000
    168.342263     188.271271     131.340546       0.000000
    171.719234     196.693535     127.395793       0.000000
    155.017412     218.633715     122.209488       0.000000
    181.554855     219.690709     118.243367       0.000000
    172.806418     229.409154     118.289286       0.000000
    164.393188     258.060428     120.322566       0.000000
    155.354685     239.607902     116.681212       0.000000
    153.424732     276.279766     121.628710       0.000000
    159.948287     266.253968     120.702006       0.000000
    175.586531     281.495149     128.394091       0.000000
    164.449335     287.728282     125.730329       0.000000
    180.229604     289.826839     129.843942       0.000000
    177.444045     304.214165     128.479970       0.000000
    166.683566     319.988516     124.985752       0.000000
    168.623943     342.126818     127.661463       0.000000
    171.883213     351.237341     131.987519       0.000000
    164.989715     360.834231     134.593439       0.000000
    172.146551     368.860772     136.697208       0.000000
    162.876988     372.419641     136.625739       0.000000
    165.879118     383.330158     136.800445       0.000000
    162.039705     395.800124     134.538960       0.000000
    163.079774     406.078246     128.688247       0.000000
    159.144438     414.301098     125.771919       0.000000
    179.127223     406.417833     129.770751       0.000000
    160.799472     422.628496     122.737686       0.000000
    157.054898     439.073403     114.899010       0.000000
    184.928889     458.313488     118.745931       0.000000
    148.536319     466.876348     117.128118       0.000000
    195.429037     456.430936     118.139001       0.000000
    175.320537     478.483278     123.966923       0.000000
    171.487850     489.122764     124.620642       0.000000
    170.000000     500.000000     124.918581       0.000000
    180.000000      10.000000     126.104879       0.000000
    169.134961      19.550282     126.957672       0.000000
    179.112776      19.078702     126.453645       0.000000
    183.740603      29.129687     128.518499       0.000000
    185.528974      48.439951     125.484147       0.000000
    179.267138      62.207003     125.803965       0.000000
    178.140868      92.250175     130.467621       0.000000
    188.566769      97.970552     130.423987       0.000000
    168.961974     108.656650     131.961675       0.000000
    179.780990     115.505168     134.117211       0.000000
    191.816900     115.713926     133.281779       0.000000
    191.170015     133.638510     136.060026       0.000000
    175.872576     126.349525     134.843773       0.000000
    177.472118     143.824219     134.544404       0.000000
    173.416010     151.927330     134.176134       0.000000
    164.072200     162.002916     132.995319       0.000000
    176.904634     184.262144     131.411808       0.000000
    180.799240     192.694071     128.834154       0.000000
    174.337846     204.924238     122.729215       0.000000
    173.532932     215.544813     119.740760       0.000000
    182.407353     210.445027     118.747610       0.000000
    194.665388     210.568253     116.530327       0.000000
    198.764479     228.083296     117.809863       0.000000
    178.934924     238.646187     120.561356       0.000000
    173.077904     265.308914     124.404282       0.000000
    154.157920     258.728372     118.495844       0.000000
    178.495451     272.904820     127.618030       0.000000
    189.500030     287.835030     130.285039       0.000000
    186.259305     296.691533     129.548638       0.000000
    187.155270     306.696686     127.067491       0.000000
    189.771806     315.751202     124.385774       0.000000
    178.051709     318.965339     125.173065       0.000000
    171.349791     328.748607     125.638985       0.000000
    178.661126     342.567937     128.592990       0.000000
    180.784383     351.769980     130.049901       0.000000
    190.031248     369.984867     134.684892       0.000000
    181.384899     374.931845     135.743899       0.000000
    172.983640     377.832023     138.117576       0.000000
    171.416533     400.086430     132.082202       0.000000
    172.074284     390.848542     135.173732       0.000000
    191.029740     389.176343     128.045377       0.000000
    188.884501     398.862394     127.510375       0.000000
    172.166892     422.442685     123.550965       0.000000
    176.193810     431.281007     119.512900       0.000000
    163.110741     462.746988     117.488765       0.000000
    187.363390     446.999493     117.850856       0.000000
    192.759593     469.178285     121.326167       0.000000
    182.795434     470.195968     120.729763       0.000000
    180.631292     490.572188     125.366594       0.000000
    180.000000     500.000000     125.307181       0.000000
    190.000000      10.000000     126.255924       0.000000
    190.084000      19.735550     126.376845       0.000000
    206.441569      37.210373     123.000678       0.000000
    198.252451      51.573171     122.120993       0.000000
    188.069272      66.027014     123.671904       0.000000
    189.380119      56.320485     123.426426       0.000000
    181.069352      82.642955     126.684672       0.000000
    189.697812      85.532540     126.681780       0.000000
