    283.383514     254.398306     125.996066       0.000000
    269.280802     272.321938     127.080881       0.000000
    270.020780     248.657610     124.952212       0.000000
    252.794885     279.719038     129.026727       0.000000
    286.637077     298.160510     121.776877       0.000000
    276.493001     301.898087     120.412630       0.000000
    287.870179     308.219406     122.501505       0.000000
    277.542836     311.252847     120.714683       0.000000
    257.804556     321.582153     120.855559       0.000000
    270.099169     346.798446     121.495818       0.000000
    276.124671     355.812480     124.189970       0.000000
    269.941495     363.203276     127.073803       0.000000
    273.672446     370.696324     131.192449       0.000000
    272.626918     385.447462     132.655725       0.000000
    277.465219     395.619154     133.599536       0.000000
    266.730069     392.247511     131.145268       0.000000
    257.681969     395.624225     130.455067       0.000000
    262.966313     410.598953     131.971491       0.000000
    276.055311     419.516773     133.675968       0.000000
    258.446810     428.268092     127.434475       0.000000
    270.759798     432.094311     129.649361       0.000000
    273.042401     447.349811     123.461611       0.000000
    277.164188     461.606403     122.163903       0.000000
    280.369453     478.923494     124.765510       0.000000
    269.520523     490.934159     122.386970       0.000000
    270.000000     500.000000     123.836655       0.000000
    280.000000      10.000000     127.053264       0.000000
    285.608050      18.963706     128.256826       0.000000
    280.470082      27.850595     123.056315       0.000000
    274.693585      39.687909     119.370245       0.000000
    283.029923      51.825949     121.728056       0.000000
    287.510174      60.861547     123.961693       0.000000
    279.053469      66.172441     121.951954       0.000000
    283.184976      75.376268     125.877154       0.000000
    272.370084      84.730403     124.598162       0.000000
    289.754161      94.088517     133.440203       0.000000
    269.277879     103.068744     129.661103       0.000000
    275.204240     119.763592     133.437913       0.000000
    289.021146     150.963353     132.213843       0.000000
    267.085975     144.569681     129.392662       0.000000
    282.958907     139.281014     133.072766       0.000000
    275.952075     147.579224     130.493617       0.000000
    274.281868     171.884847     119.689206       0.000000
    289.905344     161.932716     125.960372       0.000000
    285.091121     213.552473     116.664737       0.000000
    277.429909     207.137261     113.917603       0.000000
    284.390568     223.168485     118.495407       0.000000
    276.135912     216.308462     115.906451       0.000000
    276.455529     229.187805     119.719181       0.000000
    272.311424     237.422487     120.532836       0.000000
    279.031522     244.720562     123.378073       0.000000
    288.149147     267.946514     126.539667       0.000000
    260.438080     274.803468     128.715470       0.000000
    273.783890     280.447543     124.511927       0.000000
    273.340392     289.616336     122.384426       0.000000
    283.358951     289.155188     122.734980       0.000000
    266.367234     305.680375     120.897944       0.000000
    270.202498     330.010535     118.714276       0.000000
    282.039372     330.819982     121.164591       0.000000
    265.943503     338.512674     119.782271       0.000000
    280.161424     345.312183     120.746253       0.000000
    281.862815     365.880228     129.063378       0.000000
    281.920119     375.041091     131.204045       0.000000
    285.066484     386.645806     132.200733       0.000000
    283.547549     406.310403     135.184460       0.000000
    265.503244     401.754162     131.443577       0.000000
    274.403169     408.566040     133.939765       0.000000
    289.754200     425.956957     131.526558       0.000000
    280.783273     430.676685     131.090432       0.000000
    297.723459     439.047725     127.132031       0.000000
    278.587820     440.542942     126.529582       0.000000
    280.344111     453.036933     124.912123       0.000000
    275.943485     471.250693     121.628258       0.000000
    287.151806     470.790720     125.319667       0.000000
    280.207092     488.301717     124.736747       0.000000
    280.000000     500.000000     125.770338       0.000000
    290.000000      10.000000     127.921769       0.000000
    297.749313      19.316864     130.423761       0.000000
    292.929800      28.058210     127.138022       0.000000
    284.360756      42.861193     121.721528       0.000000
    293.259753      36.630442     123.500177       0.000000
    293.055781      51.885470     123.978038       0.000000
    296.569385      61.059744     125.257461       0.000000
    293.006405      80.668441     130.653993       0.000000
    281.015162      86.978700     129.410120       0.000000
    300.029707      89.071099     134.124852       0.000000
    296.773559     102.158771     135.572729       0.000000
    294.121683     112.908410     137.890043       0.000000
    275.853987     109.380988     133.282009       0.000000
    283.940452     117.574584     133.265570       0.000000
    300.547254     149.465136     134.150769       0.000000
    300.729669     158.393614     128.847325       0.000000
    280.279618     157.401820     127.461548       0.000000
    295.960239     186.804012     119.256252       0.000000
    282.336173     187.953904     115.343826       0.000000
    289.814321     204.450931     115.878220       0.000000
    296.089851     210.761914     117.615320       0.000000
    291.099732     229.026736     119.950962       0.000000
    303.925560     232.696355     122.692868       0.000000
    283.471469     237.055144     121.237665       0.000000
    287.840814     246.900475     123.473625       0.000000
    292.125914     259.767978     126.484061       0.000000
    279.323431     269.122904     128.004735       0.000000
    284.008209     279.541025     125.627154       0.000000
    294.027127     292.026015     123.280801       0.000000
    283.249818     319.939613     120.993689       0.000000
    293.950288     317.046663     121.630937       0.000000
    274.312048     321.723644     119.173813       0.000000
    290.718479     325.975659     121.535181       0.000000
    275.430525     337.209774     120.872945       0.000000
    289.904780     338.054935     120.299681       0.000000
    289.002929     348.897646     121.380930       0.000000
    286.786483     357.647215     125.625573       0.000000
    292.555892     365.917863     127.366913       0.000000
    290.823683     393.818740     131.705555       0.000000
    302.987324     396.411618     128.312771       0.000000
    286.184140     416.852922     135.190448       0.000000
    299.200237     427.616556     129.765766       0.000000
    288.337652     436.821299     129.197245       0.000000
    287.531946     447.396205     127.563484       0.000000
    300.103684     448.856490     126.514335       0.000000
    293.958169     455.929668     126.129339       0.000000
    286.600819     461.135156     125.712575       0.000000
    289.199287     480.022253     126.657274       0.000000
    290.471359     489.822950     126.507681       0.000000
    290.000000     500.000000     126.746895       0.000000
    300.000000      10.000000     129.266016       0.000000
    301.545076      31.979332     128.276302       0.000000
    301.593563      42.761269     125.534144       0.000000
    310.653253      43.899685     127.658424       0.000000
    305.500349      61.280333     126.775312       0.000000
    310.805306      70.576116     127.262120       0.000000
    290.921044      70.184407     126.570714       0.000000
    301.169703      71.322991     128.152235       0.000000
    304.987784      97.686573     136.278082       0.000000
    319.416149      96.470625     132.336046       0.000000
    311.088031      89.836178     134.503836       0.000000
    302.712534     109.744198     140.260949       0.000000
    285.691700     108.744682     134.722943       0.000000
    300.518027     131.070185     139.452015       0.000000
    310.387462     156.111027     132.732218       0.000000
    307.439129     164.549937     127.408401       0.000000
    298.244620     169.335798     125.737209       0.000000
    300.648311     178.756896     121.817282       0.000000
    291.933402     195.543224     117.620271       0.000000
    301.748349     203.583622     117.037456       0.000000
    306.499884     214.700402     117.322969       0.000000
    293.232349     220.033041     117.793044       0.000000
    301.451383     224.454729     118.529469       0.000000
    297.404585     241.162145     122.987958       0.000000
    298.090264     250.890570     124.431203       0.000000
    315.141230     267.914410     126.428863       0.000000
    300.816986     265.638750     126.763759       0.000000
    296.436932     273.458637     125.556347       0.000000
    301.916838     296.370512     123.628734       0.000000
    298.386714     304.726277     122.965253       0.000000
    307.928771     304.502229     124.200993       0.000000
    305.260058     325.524028     120.882301       0.000000
    307.757146     337.423192     119.698311       0.000000
    298.424787     333.083763     120.636898       0.000000
    299.843081     343.457646     120.612940       0.000000
    295.760532     358.048152     123.528307       0.000000
    301.281645     365.919721     124.073370       0.000000
    292.601752     375.094464     129.349048       0.000000
    307.068055     385.441999     126.917755       0.000000
    311.777382     392.807179     124.077233       0.000000
    293.820148     404.953369     132.565056       0.000000
    294.458779     413.952136     131.641804       0.000000
    305.455844     434.363308     126.688518       0.000000
    308.269566     442.969875     125.950673       0.000000
    317.349142     451.512645     124.854872       0.000000
    294.537175     465.436348     126.292337       0.000000
    300.562596     472.534449     127.291454       0.000000
    309.534793     490.258667     131.687682       0.000000
    303.765803     481.184060     130.425872       0.000000
    300.000000     500.000000     128.712337       0.000000
    310.000000      10.000000     130.335984       0.000000
    306.407301      23.085971     130.161842       0.000000
    311.755253      33.491824     128.285126       0.000000
    304.486516      51.856355     126.618707       0.000000
    329.748005      64.874550     125.195255       0.000000
    323.695987      58.272021     126.237196       0.000000
    314.537323      79.646521     128.913831       0.000000
    321.034055      68.617198     125.382430       0.000000
    304.767014      79.711496     130.762629       0.000000
    328.632914      85.476705     126.008239       0.000000
    299.051720     120.799485     139.433021       0.000000
    290.528846     122.823698     136.915805       0.000000
    302.825767     140.004818     138.281430       0.000000
    293.006666     141.743248     135.066573       0.000000
    313.586752     146.663326     135.355628       0.000000
    320.101204     154.598820     132.830058       0.000000
    308.843804     173.295696     122.574877       0.000000
    324.260968     177.451313     120.358881       0.000000
    303.515536     194.196382     118.572318       0.000000
    312.617071     194.879500     118.359054       0.000000
    310.923974     205.472721     117.202288       0.000000
    316.112556     218.956016     118.520895       0.000000
    323.439050     224.289322     121.716461       0.000000
    312.103917     226.870333     120.837911       0.000000
    308.901549     259.532201     126.746712       0.000000
    308.626734     275.319462     125.929621       0.000000
    306.176578     284.651351     126.044702       0.000000
    295.784908     282.650239     124.374232       0.000000
    318.290301     287.305412     124.523455       0.000000
    323.263985     296.467827     122.485112       0.000000
    312.622945     294.577049     123.173873       0.000000
    304.163660     315.763397     122.715998       0.000000
    313.198151     321.060410     120.741427       0.000000
    313.817559     330.397161     119.344044       0.000000
    320.453020     353.322302     116.082755       0.000000
    317.909622     339.563625     117.359778       0.000000
    311.913270     347.143278     118.816138       0.000000
    303.431672     377.013147     126.883380       0.000000
    315.091538     382.219209     123.018940       0.000000
    297.152992     386.051756     129.444349       0.000000
    303.105518     407.195551     130.139842       0.000000
    302.781677     419.318743     128.928017       0.000000
    323.445575     420.397601     122.912071       0.000000
    321.992377     468.506800     127.529175       0.000000
    312.704423     462.603504     126.760164       0.000000
    308.345186     453.275771     126.568674       0.000000
    302.962103     461.544186     126.730555       0.000000
    314.033962     479.817404     132.383012       0.000000
    300.319697     490.564420     129.373782       0.000000
    310.000000     500.000000     130.595729       0.000000
    320.000000      10.000000     133.090773       0.000000
    314.738566      17.808154     131.593626       0.000000
    317.410103      26.928203     130.791679       0.000000
    315.594034      52.266912     125.275261       0.000000
    314.749528      61.810478     125.605003       0.000000
    335.412407      73.464753     123.301357       0.000000
    342.912926      66.160383     123.685608       0.000000
    324.736259      76.880132     125.844518       0.000000
    320.502304      87.106642     129.846263       0.000000
    333.723504     106.913811     128.227977       0.000000
    325.324948     105.300071     131.368677       0.000000
    309.969628     115.442809     138.870918       0.000000
    309.301526     127.023075     139.345658       0.000000
    312.226639     138.053187     138.520557       0.000000
    322.261554     133.699958     136.201009       0.000000
    331.932727     170.883176     121.274430       0.000000
    316.238634     163.547109     129.591173       0.000000
    317.191815     183.153216     118.772082       0.000000
    308.133611     184.220168     121.346669       0.000000
    319.601199     202.375083     118.044934       0.000000
    321.190885     211.395446     117.734167       0.000000
    332.708718     223.362589     123.011269       0.000000
    316.096024     236.665165     124.876853       0.000000
    306.828736     241.134782     124.155576       0.000000
    323.669189     254.952902     127.543058       0.000000
    312.771718     251.406114     126.110979       0.000000
    334.590877     264.218713     126.776338       0.000000
    317.802531     278.070265     125.590872       0.000000
    329.833705     287.733806     122.725496       0.000000
    317.236051     302.990176     124.772271       0.000000
    313.287247     311.741734     122.531119       0.000000
    332.249155     331.752195     115.216685       0.000000
    327.509331     339.832124     114.373492       0.000000
    341.528568     336.661218     115.734444       0.000000
    328.464059     349.145740     115.593787       0.000000
    314.313108     361.963511     119.159244       0.000000
    303.086509     351.874353     120.623383       0.000000
    313.930547     372.740909     122.017036       0.000000
    320.191651     394.551148     120.632054       0.000000
    320.073449     403.452657     122.100960       0.000000
    313.449700     423.271669     125.813671       0.000000
    317.127644     432.127067     124.814163       0.000000
    325.852519     448.224022     122.823921       0.000000
    325.516341     429.087506     121.141137       0.000000
    322.319914     459.379341     124.351117       0.000000
    349.590340     448.458743     118.344829       0.000000
    310.467669     471.841559     129.716830       0.000000
    322.615408     476.987541     130.697518       0.000000
    321.217388     490.218566     133.639617       0.000000
    320.000000     500.000000     133.243262       0.000000
    330.000000      10.000000     134.464085       0.000000
    334.953172      19.655653     134.125581       0.000000
    325.866869      18.150651     133.476315       0.000000
    326.280125      27.597789     132.644698       0.000000
    322.772081      35.314014     128.726944       0.000000
    345.933733      53.171062     125.384554       0.000000
    335.361534      49.177424     126.682069       0.000000
    331.393271      95.948679     127.080659       0.000000
    349.731867      97.304224     122.505471       0.000000
    322.271492     114.754400     134.686876       0.000000
    331.409041     116.260130     132.379347       0.000000
    339.611842     100.664111     124.411065       0.000000
    318.998360     123.057353     136.907590       0.000000
    336.529126     130.486905     132.448892       0.000000
    321.960389     143.122157     134.696746       0.000000
    318.097686     172.134952     124.814781       0.000000
    327.515005     164.719598     127.962763       0.000000
    332.414739     181.414815     118.603714       0.000000
    332.709604     191.999167     116.783100       0.000000
    331.135674     204.182863     119.256806       0.000000
    329.615144     213.631131     120.538957       0.000000
    326.878950     232.969471     126.502204       0.000000
    331.747787     242.176093     128.150109       0.000000
    321.113309     245.875931     127.215135       0.000000
    332.876450     253.233985     127.414999       0.000000
    323.886127     265.219363     126.170455       0.000000
    336.231795     273.986480     124.496092       0.000000
    327.168511     275.227865     125.304560       0.000000
    340.453496     287.380870     122.903655       0.000000
    333.647272     297.069174     123.348453       0.000000
    323.211096     330.880146     116.665359       0.000000
    322.340017     311.338428     121.031412       0.000000
    323.646714     320.748000     117.956181       0.000000
    336.541769     344.495964     114.443669       0.000000
    340.274020     353.638810     114.015274       0.000000
    332.344290     373.513650     118.853705       0.000000
    324.963851     365.933060     118.205077       0.000000
    322.963779     374.730630     121.008378       0.000000
    324.274229     386.043199     119.609469       0.000000
    329.916661     395.276741     117.690104       0.000000
    311.809218     402.685094     125.943412       0.000000
    326.321346     411.188529     121.859593       0.000000
    339.791160     428.851577     119.637645       0.000000
    318.931794     440.999733     122.947551       0.000000
    338.591233     449.049172     120.991172       0.000000
    335.348431     465.221389     123.160667       0.000000
    330.879473     472.248183     127.297437       0.000000
    330.589202     489.189419     131.060175       0.000000
    340.576034     489.440939     129.829593       0.000000
    330.000000     500.000000     133.066167       0.000000
    340.000000      10.000000     133.062383       0.000000
    346.036911      18.119089     131.012778       0.000000
    338.363735      28.193989     130.783362       0.000000
    344.078394      41.422865     126.685811       0.000000
    331.748062      36.122633     128.923470       0.000000
    337.124239      59.101445     125.185960       0.000000
    322.022113      45.768558     127.715452       0.000000
    337.870415      82.494017     124.472881       0.000000
    341.410426      91.770314     123.953982       0.000000
    341.184429     114.149345     127.245558       0.000000
    314.070744     103.150153     135.957682       0.000000
    343.448053     123.706504     129.874389       0.000000
    328.541470     125.202107     133.710161       0.000000
    350.303303     130.558200     129.484049       0.000000
    330.677103     140.523219     134.102883       0.000000
    341.126401     174.322673     118.776794       0.000000
    350.820184     178.649389     117.947381       0.000000
    357.590360     185.295933     118.543490       0.000000
    323.505575     191.924564     117.830903       0.000000
    343.182865     184.182259     117.505588       0.000000
    342.896615     203.125302     118.713852       0.000000
    336.528509     231.469999     125.149882       0.000000
    348.245349     231.041100     128.259334       0.000000
    343.146884     253.138710     127.322325       0.000000
    343.263202     243.603755     127.014355       0.000000
    343.565204     263.081477     125.001146       0.000000
    352.469355     253.999583     127.009403       0.000000
    347.793837     274.749888     122.718907       0.000000
    343.884933     296.015237     123.091187       0.000000
    334.077896     310.378127     121.385406       0.000000
    333.709462     322.780933     117.338456       0.000000
    345.973385     328.000158     117.624312       0.000000
    348.460494     345.685748     113.772833       0.000000
    356.842392     342.357782     114.063199       0.000000
    346.955891     362.633711     115.194271       0.000000
    330.602397     358.504859     115.664254       0.000000
    336.966984     366.249352     115.801169       0.000000
    345.062869     388.097688     116.027913       0.000000
    333.290609     386.845426     116.527778       0.000000
    333.971895     406.261036     118.104987       0.000000
    313.856514     412.794465     125.392993       0.000000
    333.504744     418.874033     119.923547       0.000000
    343.145827     418.096252     118.880184       0.000000
    331.782967     440.781785     121.540053       0.000000
    359.904310     433.116481     119.168664       0.000000
    340.452200     439.774740     118.839862       0.000000
    331.967245     455.306076     122.236975       0.000000
    339.744372     472.984085     125.828813       0.000000
    349.684570     489.678713     128.398646       0.000000
    340.000000     500.000000     131.635173       0.000000
    350.000000      10.000000     130.857684       0.000000
    355.433551      20.022661     127.742578       0.000000
    347.299753      26.796417     128.538824       0.000000
    356.403617      37.024428     124.601210       0.000000
    352.420167      46.987476     124.229487       0.000000
    350.992858      61.150250     123.281086       0.000000
    349.011846      74.572233     123.136861       0.000000
    349.453237      85.227642     121.523656       0.000000
    359.181109      99.644842     119.420840       0.000000
    359.406273     112.677616     121.238192       0.000000
    350.065834     117.029093     124.781661       0.000000
    357.597587     124.369225     125.058016       0.000000
    341.601463     138.553079     131.935127       0.000000
    339.527403     147.620109     130.642893       0.000000
    339.334715     165.727620     123.288869       0.000000
    349.844323     150.159991     126.380764       0.000000
    343.210297     157.709716     125.296561       0.000000
    348.860684     167.259091     122.436293       0.000000
    352.967958     195.119226     117.691288       0.000000
    342.231053     194.032800     117.957257       0.000000
    339.475514     212.302668     120.312765       0.000000
    358.053265     203.836487     121.277816       0.000000
    345.225263     221.935443     124.074808       0.000000
    352.136571     240.731121     128.212147       0.000000
    368.372569     239.060851     127.749653       0.000000
    358.574734     247.073039     126.868381       0.000000
    355.037910     267.349221     124.460856       0.000000
    364.532156     268.164677     121.089901       0.000000
    350.840264     285.952997     121.800320       0.000000
    327.628709     304.364566     123.389751       0.000000
    344.481675     315.863911     119.486125       0.000000
    359.252361     312.697104     117.780462       0.000000
    352.367043     320.075750     117.924419       0.000000
    354.177892     353.174682     113.305237       0.000000
    356.744202     363.540108     114.275896       0.000000
    348.701219     371.862825     115.649732       0.000000
    339.406421     379.714551     116.296083       0.000000
    352.480895     382.786864     114.622284       0.000000
    339.164764     395.502387     115.634689       0.000000
    360.167950     400.633678     114.899578       0.000000
    350.392622     397.917810     115.290988       0.000000
    347.096820     407.006882     117.656053       0.000000
    348.818000     427.939137     118.859263       0.000000
    350.307532     437.728354     118.836332       0.000000
    352.706002     457.768381     121.735413       0.000000
    342.047265     458.512353     122.711578       0.000000
    351.638366     466.324358     124.865315       0.000000
    335.048927     481.495653     128.659474       0.000000
    364.118468     490.507522     126.351144       0.000000
    350.000000     500.000000     131.196921       0.000000
    360.000000      10.000000     128.358599       0.000000
    364.907563      19.683688     126.232993       0.000000
    365.974431      37.208913     123.433555       0.000000
    357.712640      54.871953     123.469677       0.000000
    372.832298      53.339695     120.652063       0.000000
    364.619843      60.950252     122.153497       0.000000
    357.241774      68.094452     122.032673       0.000000
    370.569624      82.109612     120.391977       0.000000
    358.512095      87.658651     119.952779       0.000000
    365.829399     106.570011     119.284371       0.000000
    374.918550     114.138853     121.759225       0.000000
    362.021234     133.816173     123.995687       0.000000
    334.553429     158.935781     129.373928       0.000000
    328.718572     149.563992     133.197421       0.000000
    359.344013     145.516966     124.344777       0.000000
    363.613459     154.291730     123.480130       0.000000
    353.882499     158.522662     124.504774       0.000000
    360.323614     175.572041     120.533488       0.000000
    361.718796     194.791171     120.978288       0.000000
    370.509391     196.159811     123.816279       0.000000
    366.312035     206.887737     125.323723       0.000000
    349.077001     210.250171     120.882890       0.000000
    355.118221     223.389032     126.614466       0.000000
    376.421089     243.183116     127.144076       0.000000
    368.471141     248.939212     126.360107       0.000000
    362.270618     258.223966     125.685275       0.000000
    376.414365     268.541668     118.731385       0.000000
    363.287784     289.843475     117.259810       0.000000
    350.609582     307.130608     119.506521       0.000000
    342.004545     305.163812     121.871799       0.000000
    360.461043     300.821329     117.637045       0.000000
    365.101724     334.132188     115.647875       0.000000
    351.708063     335.088720     116.360762       0.000000
    375.764419     335.438554     114.454229       0.000000
    368.715924     346.489209     115.377409       0.000000
    363.087855     355.427659     113.949072       0.000000
    358.027898     372.564597     115.010620       0.000000
    362.735434     380.489209     115.012087       0.000000
    369.860091     396.152353     115.650254       0.000000
    357.795658     411.323456     117.406222       0.000000
    367.979366     405.111244     116.496480       0.000000
    352.804612     418.944682     117.950389       0.000000
    371.438579     437.052171     120.269030       0.000000
    362.659687     442.130227     120.336184       0.000000
    360.627755     452.689158     120.940654       0.000000
    358.640576     473.872511     126.366058       0.000000
    357.673838     483.483883     126.823782       0.000000
    348.920436     480.876372     126.644068       0.000000
    373.985388     486.619387     124.815060       0.000000
    360.000000     500.000000     128.642095       0.000000
    370.000000      10.000000     127.172587       0.000000
    376.238097      21.497896     125.392301       0.000000
    361.309240      28.768806     125.561847       0.000000
    364.333825      47.275914     120.774320       0.000000
    374.984575      62.615263     119.356112       0.000000
    361.497299      77.929543     121.806467       0.000000
    376.425081      74.479581     119.988551       0.000000
    392.069749      83.575202     114.348958       0.000000
    369.273120      91.406539     118.985098       0.000000
    351.546899     106.959877     122.796465       0.000000
    379.976617     126.792996     121.291222       0.000000
    366.058315     119.002659     122.083014       0.000000
    370.915932     128.475422     122.493478       0.000000
    390.563030     125.477654     122.245902       0.000000
    350.924226     140.985912     128.278596       0.000000
    368.772391     140.246887     122.936475       0.000000
    372.659017     149.411396     122.866700       0.000000
    368.979253     173.763310     123.329898       0.000000
    365.736343     185.280047     122.517702       0.000000
    374.402413     211.644321     127.848644       0.000000
    357.591950     214.571098     125.178820       0.000000
    366.510244     218.680174     128.105617       0.000000
    359.807726     235.950318     128.392488       0.000000
    368.192048     227.558493     128.690741       0.000000
    377.760457     251.462587     123.710529       0.000000
    370.503897     260.489705     121.871805       0.000000
    385.339628     256.356224     120.452346       0.000000
    357.025494     278.618825     120.511658       0.000000
    371.382535     295.318115     117.176495       0.000000
    353.224906     295.471276     121.520289       0.000000
    368.261434     306.684857     116.550132       0.000000
    390.905449     318.964336     113.319857       0.000000
    357.674149     327.239313     116.598199       0.000000
    387.019945     327.153339     114.729472       0.000000
    372.830660     326.796850     115.102241       0.000000
    373.982989     355.018616     115.773712       0.000000
    368.141062     363.240909     115.868724       0.000000
    368.871495     372.698061     116.705298       0.000000
    358.959378     389.379536     114.587678       0.000000
    377.751752     401.965596     118.306329       0.000000
    380.217883     424.427328     121.391604       0.000000
    371.940621     427.710377     118.844373       0.000000
    361.511316     423.281419     117.315009       0.000000
    371.143770     446.975768     122.052564       0.000000
    378.610513     452.458391     123.191040       0.000000
    361.538979     464.916416     123.786032       0.000000
    368.830950     456.853516     122.645184       0.000000
    368.210036     479.455303     125.353707       0.000000
    382.541465     490.818956     124.764526       0.000000
    370.000000     500.000000     125.954546       0.000000
    380.000000      10.000000     125.774956       0.000000
    385.108464      20.611933     123.900335       0.000000
    373.861056      30.520195     124.144965       0.000000
    383.321147      48.781268     121.547538       0.000000
    391.775856      39.864871     121.599652       0.000000
    384.545565      58.764967     119.817118       0.000000
    367.321125      69.843333     121.304766       0.000000
    383.735297      68.223574     118.742215       0.000000
    377.562592      97.409434     118.896583       0.000000
    379.893267     106.593935     120.488386       0.000000
    392.032686     112.954503     120.662839       0.000000
    384.146755     118.809019     120.620112       0.000000
    382.280949     144.869519     122.712184       0.000000
    378.070495     136.923954     121.746418       0.000000
    371.408669     158.794369     123.888865       0.000000
    391.223094     147.681198     123.587312       0.000000
    363.543238     163.576387     123.627107       0.000000
    377.952154     168.017252     124.767902       0.000000
    378.156373     189.916362     127.013087       0.000000
    383.385750     210.022032     128.161150       0.000000
    384.225679     219.423570     130.258218       0.000000
    398.506187     227.917249     124.933333       0.000000
    375.409746     221.703144     128.770467       0.000000
    389.594041     229.736382     126.939014       0.000000
    376.312533     232.270293     128.330975       0.000000
    388.061107     264.783980     117.315711       0.000000
    382.553362     278.575007     115.602100       0.000000
    370.250670     276.627979     119.419525       0.000000
    376.078868     284.709333     117.444309       0.000000
    380.264665     296.920263     115.211255       0.000000
    368.114034     317.166290     116.604978       0.000000
    389.795853     307.858794     112.159129       0.000000
    384.667832     336.806786     115.852513       0.000000
    378.497759     347.099599     114.601777       0.000000
    389.481808     354.695729     119.883407       0.000000
    381.960961     359.832243     118.619635       0.000000
    376.741537     367.985147     117.615208       0.000000
    396.505937     374.869918     128.836731       0.000000
    379.748272     378.348416     119.608097       0.000000
    371.158485     384.817882     116.181087       0.000000
    369.180506     415.689230     117.241836       0.000000
    388.689686     427.297278     122.543272       0.000000
    382.606136     443.435856     123.090267       0.000000
    380.487192     434.658007     120.836574       0.000000
    392.309833     446.095138     124.002152       0.000000
    376.270809     463.696499     124.139759       0.000000
    369.015778     469.888867     124.981221       0.000000
    385.414539     481.374285     123.733749       0.000000
    388.219854     472.198608     125.531737       0.000000
    380.000000     500.000000     125.571420       0.000000
    390.000000      10.000000     125.131449       0.000000
    397.097798      18.830663     124.185990       0.000000
    373.948619      42.264210     122.345405       0.000000
    382.842530      39.104911     122.991025       0.000000
    400.868630      42.342095     120.906588       0.000000
    392.941510      53.933889     119.331030       0.000000
    390.616350      73.870257     116.390917       0.000000
    399.965450      76.558593     115.619421       0.000000
    383.539275      79.641533     117.721339       0.000000
    378.613204      87.574590     119.230906       0.000000
    390.306820     103.249247     119.572408       0.000000
    407.609917     114.419320     121.062453       0.000000
    397.050061     131.777289     123.132786       0.000000
    387.923315     137.811389     122.392068       0.000000
    380.516999     155.848923     123.793132       0.000000
    390.664544     157.563607     124.739297       0.000000
    389.008127     167.307464     125.556885       0.000000
    386.174578     176.968232     126.344502       0.000000
    377.611124     202.851193     126.599779       0.000000
    385.282253     197.597929     127.746499       0.000000
    391.752518     205.176267     128.476610       0.000000
    393.004466     218.473833     127.641506       0.000000
    409.923006     226.994951     124.891157       0.000000
    404.794493     234.314450     122.841417       0.000000
    395.153739     237.230730     124.889536       0.000000
    385.370790     239.322221     126.225232       0.000000
    394.708028     255.119544     119.563243       0.000000
    384.296805     288.397354     115.707221       0.000000
    391.411103     298.319211     112.942313       0.000000
    381.057139     318.761966     112.435324       0.000000
    377.589795     306.311443     114.079619       0.000000
    398.794325     304.736292     113.479470       0.000000
    393.424357     333.708782     117.347572       0.000000
    389.560232     344.118778     118.792995       0.000000
    396.776088     349.210907     121.210748       0.000000
    389.496266     365.453575     123.286902       0.000000
    387.287751     376.036797     124.357012       0.000000
    398.868935     385.829209     129.637203       0.000000
    389.315498     384.827475     126.511166       0.000000
    379.194129     392.544097     118.837938       0.000000
    389.335834     395.200018     123.876670       0.000000
    380.085735     413.913349     120.139124       0.000000
    420.114119     415.789874     132.175625       0.000000
    393.536654     435.119788     123.402548       0.000000
    387.880983     454.331808     123.923713       0.000000
    385.748181     463.097848     124.031551       0.000000
    378.191511     475.374332     124.460389       0.000000
    395.170025     480.471960     124.203521       0.000000
    391.879675     489.131972     123.525259       0.000000
    390.000000     500.000000     124.777017       0.000000
    400.000000      10.000000     125.176790       0.000000
    406.719080      21.911739     123.432904       0.000000
    382.930953      29.383614     123.500018       0.000000
    391.997266      29.878942     122.432532       0.000000
    413.416810      49.322281     122.542327       0.000000
    402.407422      51.249263     119.805311       0.000000
    393.074698      63.996063     117.705934       0.000000
    400.709862      86.906927     116.540340       0.000000
    400.346179     107.743726     119.477891       0.000000
    387.351565      93.906868     117.396272       0.000000
    397.481948      96.371713     117.170663       0.000000
    399.283939     118.336859     122.036412       0.000000
    397.079450     140.732326     124.093829       0.000000
    416.692696     141.743603     126.172899       0.000000
    407.319499     138.177246     125.388203       0.000000
    407.525298     150.229298     125.560012       0.000000
    395.234754     174.477836     125.919091       0.000000
    397.321785     183.373033     127.141694       0.000000
    377.208210     178.164799     126.425291       0.000000
    387.329711     187.149506     126.613344       0.000000
    394.889351     193.497042     127.648538       0.000000
    398.598998     210.892600     127.250231       0.000000
    418.964096     234.251544     123.341587       0.000000
    418.020879     222.610049     126.254978       0.000000
    399.273015     244.798241     121.766295       0.000000
    390.146719     247.766852     122.137378       0.000000
    404.069715     252.624302     120.270809       0.000000
    390.521426     274.131871     116.376716       0.000000
    394.390255     286.563629     114.214561       0.000000
    401.921468     291.894345     114.177870       0.000000
    408.024639     308.038824     114.506133       0.000000
    399.258558     314.502306     114.520628       0.000000
    399.231575     324.183116     115.234778       0.000000
    410.809008     341.714861     122.681718       0.000000
    401.444317     339.421197     120.660437       0.000000
    397.813654     357.926978     125.660834       0.000000
    405.102481     378.714777     132.173412       0.000000
    402.781537     367.453427     129.804587       0.000000
    420.652965     394.719936     132.744077       0.000000
    410.784608     396.970578     131.392973       0.000000
    399.092005     396.111552     128.360711       0.000000
    385.550588     405.121049     123.201459       0.000000
    387.896141     417.994461     123.101428       0.000000
    396.351921     422.351582     125.300628       0.000000
    401.691515     442.332993     126.207666       0.000000
    407.300807     473.113791     128.583630       0.000000
    400.404614     452.319086     126.356310       0.000000
    398.546195     470.761357     128.139137       0.000000
    402.328039     489.571011     125.313970       0.000000
    400.000000     500.000000     124.703641       0.000000
    410.000000      10.000000     125.567965       0.000000
    414.424113      30.017169     122.175699       0.000000
    402.189470      32.917219     122.111463       0.000000
    409.838227      37.933235     122.099210       0.000000
    426.867775      63.131751     121.568653       0.000000
    411.041650      57.762565     120.113658       0.000000
    402.458202      65.738920     118.140270       0.000000
    408.677839      95.535430     117.427271       0.000000
    414.440766      87.283984     118.583604       0.000000
    418.461229      96.586370     121.856900       0.000000
    414.379017     108.521161     122.146541       0.000000
    409.485913     129.416848     124.537812       0.000000
    428.503605     136.282202     127.460223       0.000000
    427.747484     146.872940     128.358813       0.000000
    399.369970     154.719780     125.525601       0.000000
    418.305510     163.405418     128.367157       0.000000
    408.239540     162.799927     127.216685       0.000000
    405.027158     177.372456     129.130851       0.000000
    400.694792     201.131264     127.641909       0.000000
    408.840877     195.751739     127.265283       0.000000
    409.372369     205.952776     126.635270       0.000000
    403.204604     219.294331     126.197675       0.000000
    411.797370     215.963187     126.015069       0.000000
    408.614459     243.836896     122.208049       0.000000
    411.598374     258.223399     119.565617       0.000000
    418.696579     266.062649     120.110423       0.000000
    408.107902     267.278746     117.648034       0.000000
    400.103682     262.263081     117.618068       0.000000
    399.434904     271.290714     115.630789       0.000000
    422.551949     304.737371     116.938503       0.000000
    417.605044     313.778293     116.822010       0.000000
    405.814651     330.962897     118.000622       0.000000
    423.988101     335.454808     124.103851       0.000000
    416.146613     353.564650     128.658671       0.000000
    405.317857     351.225243     123.993072       0.000000
    412.524598     367.399184     131.418842       0.000000
    408.591142     359.260917     128.681450       0.000000
    408.784316     387.181088     130.495975       0.000000
    430.316394     393.808769     132.552464       0.000000
    412.695753     406.375454     131.935947       0.000000
    403.599975     405.675096     130.064441       0.000000
    393.519321     408.291211     126.418398       0.000000
    401.684522     415.011311     127.577594       0.000000
    409.184990     436.758118     129.148149       0.000000
    404.680012     428.754556     127.756188       0.000000
    409.479099     451.536680     128.850954       0.000000
    416.795671     473.543127     127.439367       0.000000
    409.337777     482.623612     126.775756       0.000000
    414.640432     491.800298     127.416133       0.000000
    410.000000     500.000000     126.329547       0.000000
    420.000000      10.000000     126.905049       0.000000
    415.924447      20.833701     124.540161       0.000000
    422.865610      33.764256     124.056685       0.000000
    421.774225      55.106739     123.117358       0.000000
    429.432453      45.932213     124.364350       0.000000
    432.307331      55.575486     123.279431       0.000000
    413.277262      66.952624     118.666851       0.000000
    410.145552      75.461550     117.460258       0.000000
    423.382512      85.848569     119.491655       0.000000
    429.719623      96.117835     124.450242       0.000000
    423.890372     104.792239     124.413731       0.000000
    416.481940     117.236973     123.444228       0.000000
    418.767785     130.462359     126.563853       0.000000
    435.101371     119.077798     127.067027       0.000000
    436.451588     148.056493     130.729202       0.000000
    417.709154     152.165908     125.896307       0.000000
    397.736660     164.157695     126.706896       0.000000
    412.866894     172.130675     128.219270       0.000000
    416.464025     182.141432     128.317392       0.000000
    405.811360     186.912363     128.182621       0.000000
    420.674504     212.905067     126.109827       0.000000
    427.597188     219.132982     125.900148       0.000000
    427.899395     228.674185     125.013541       0.000000
    438.310524     245.254418     128.103385       0.000000
    425.991102     240.151196     123.940322       0.000000
    419.291475     247.012329     122.413002       0.000000
    424.366518     274.349158     120.969304       0.000000
    402.487043     281.760998     113.702920       0.000000
    410.633836     299.012408     115.016680       0.000000
    409.016753     321.572423     116.726009       0.000000
    425.888038     317.846659     121.324260       0.000000
    415.586557     333.017108     121.105160       0.000000
    418.699960     322.583325     118.675463       0.000000
    420.957562     345.060535     124.942331       0.000000
    426.696582     355.896444     130.662358       0.000000
    421.800069     363.923668     132.724133       0.000000
    414.616653     375.944692     134.073953       0.000000
    418.146824     384.872667     133.249561       0.000000
    423.719558     373.331592     134.368332       0.000000
    421.934390     406.713973     132.020095       0.000000
    410.470694     416.659746     129.834960       0.000000
    428.958645     418.532220     130.123462       0.000000
    425.313990     427.476087     129.930881       0.000000
    415.734816     442.980871     130.554783       0.000000
    404.047871     461.585992     127.713846       0.000000
    395.213199     459.831718     125.704479       0.000000
    426.040587     471.486423     128.211334       0.000000
    418.514098     482.929670     127.971164       0.000000
    424.599560     491.646578     128.058215       0.000000
    420.000000     500.000000     127.782035       0.000000
    430.000000      10.000000     127.249566       0.000000
    424.853801      20.179839     126.495923       0.000000
    430.461054      28.221585     125.923971       0.000000
    420.341843      42.743977     124.178259       0.000000
    437.407336      63.835689     122.465082       0.000000
    432.313122      73.222211     120.409136       0.000000
    421.087402      76.015841     119.303615       0.000000
    433.976317      84.261685     120.522339       0.000000
    442.263697      99.552313     122.788951       0.000000
    451.745230      88.241600     119.279037       0.000000
    434.159849     104.445250     125.550993       0.000000
    427.438579     113.029975     126.415276       0.000000
    428.279568     125.386121     127.112493       0.000000
    444.678213     119.795914     128.109842       0.000000
    438.676535     133.177859     130.700306       0.000000
    432.912470     167.490366     130.293862       0.000000
    422.416211     172.988468     128.139777       0.000000
    432.824542     176.742005     129.563783       0.000000
    425.488075     181.891777     127.216357       0.000000
    420.008274     191.148604     127.453798       0.000000
    417.872431     202.999811     125.556312       0.000000
    431.046276     207.696595     125.108329       0.000000
    439.888013     226.317276     127.175552       0.000000
    434.360314     235.120592     125.353146       0.000000
