    146.715717     231.700286     117.120485       0.000000
    162.483975     245.811143     118.592969       0.000000
    171.109260     272.648160     127.215218       0.000000
    156.608643     281.981125     121.123597       0.000000
    156.666649     291.546471     120.943449       0.000000
    170.995169     297.997149     125.556066       0.000000
    171.160208     308.550415     123.793827       0.000000
    146.431266     323.783259     123.070031       0.000000
    161.589174     332.379861     126.169975       0.000000
    163.482659     349.503501     132.910133       0.000000
    158.320102     357.648105     135.320207       0.000000
    156.999699     367.273598     136.664744       0.000000
    148.610861     361.373247     134.288566       0.000000
    154.139795     376.245039     134.674439       0.000000
    148.593659     395.172206     127.865001       0.000000
    148.232811     404.823478     124.503391       0.000000
    170.901520     412.286836     127.044047       0.000000
    151.240933     416.932742     121.934843       0.000000
    168.681092     440.603732     118.488769       0.000000
    178.455708     436.893766     119.322671       0.000000
    164.826419     452.595196     115.212626       0.000000
    173.280808     456.295105     116.372377       0.000000
    155.833479     458.285313     114.186965       0.000000
    171.060667     468.047769     117.072175       0.000000
    159.628881     489.476673     123.433737       0.000000
    160.000000     500.000000     125.693618       0.000000
    170.000000      10.000000     125.493116       0.000000
    163.343408      28.174061     127.835909       0.000000
    174.558259      33.141848     128.219038       0.000000
    186.224272      34.757630     126.377471       0.000000
    180.459250      41.702022     127.514431       0.000000
    169.380233      45.305773     127.200017       0.000000
    168.947163      57.153851     125.622800       0.000000
    175.925051      80.799054     126.641106       0.000000
    168.948373      89.361653     128.597579       0.000000
    166.617419     100.139086     128.219005       0.000000
    184.312837     119.952809     133.341439       0.000000
    148.277497     106.275958     129.145270       0.000000
    172.320427     118.713245     131.525822       0.000000
    168.495010     144.464439     135.770608       0.000000
    156.397114     163.136725     133.057834       0.000000
    152.474332     153.687017     132.943493       0.000000
    183.964958     171.099940     129.947390       0.000000
    171.976547     173.750745     131.025144       0.000000
    165.349014     188.865437     130.407466       0.000000
    172.343124     195.159330     127.761576       0.000000
    153.169753     218.848509     121.005701       0.000000
    184.364520     220.255802     117.108176       0.000000
    173.625979     229.316897     117.232777       0.000000
    166.251893     254.522395     121.791283       0.000000
    153.401548     238.684235     117.518837       0.000000
    152.022295     272.774910     116.948756       0.000000
    159.395347     266.855422     119.653806       0.000000
    175.511176     280.740239     128.496611       0.000000
    168.072536     285.302742     125.962731       0.000000
    175.843108     290.096161     128.046525       0.000000
    178.709611     303.615880     124.799858       0.000000
    163.880163     321.909392     124.412792       0.000000
    168.299629     338.726176     128.003817       0.000000
    173.330188     348.351292     133.183504       0.000000
    167.682652     359.039212     135.872745       0.000000
    171.874066     368.839204     136.693238       0.000000
    163.817859     373.403270     137.180534       0.000000
    163.448419     383.986838     135.576802       0.000000
    160.980362     393.171598     130.728873       0.000000
    157.339174     404.897675     127.112178       0.000000
    161.274755     413.211152     125.153122       0.000000
    177.461484     405.247721     128.453506       0.000000
    160.263292     421.795897     121.047993       0.000000
    157.988330     440.012943     116.579425       0.000000
    181.845332     459.969144     118.479109       0.000000
    150.875757     467.068013     117.551711       0.000000
    193.344720     457.461395     118.488219       0.000000
    179.179706     479.762738     120.176902       0.000000
    169.443809     490.626732     123.559170       0.000000
    170.000000     500.000000     125.184109       0.000000
    180.000000      10.000000     125.974239       0.000000
    168.476448      20.663060     127.596817       0.000000
    177.303740      18.543293     126.883457       0.000000
    183.001368      25.877407     126.696158       0.000000
    186.561013      48.679296     124.338131       0.000000
    178.818028      58.399360     124.252784       0.000000
    177.923824      91.074560     127.209054       0.000000
    188.878163      94.797394     125.760027       0.000000
    167.320506     110.669362     130.357416       0.000000
    179.704332     111.934571     131.006755       0.000000
    191.340833     114.114303     129.830165       0.000000
    189.574426     127.359839     134.660985       0.000000
    179.128655     127.781119     135.627095       0.000000
    178.335480     144.735862     134.815882       0.000000
    173.367906     155.671922     133.574460       0.000000
    167.111056     164.352209     133.110121       0.000000
    175.523571     182.751279     128.690495       0.000000
    181.026588     190.894889     126.574662       0.000000
    171.501306     208.952719     123.237471       0.000000
    173.227293     218.208705     120.247509       0.000000
    185.486088     211.278338     117.854907       0.000000
    194.651495     209.290723     117.400624       0.000000
    197.605525     234.867217     117.105336       0.000000
    181.061760     241.453250     118.665088       0.000000
    168.177200     263.580045     123.802879       0.000000
    157.848539     257.620048     118.971088       0.000000
    179.945934     270.459451     128.740963       0.000000
    184.384563     284.775977     128.700961       0.000000
    185.553138     294.599417     127.679198       0.000000
    187.654942     303.401623     126.388333       0.000000
    183.553949     317.078225     121.665625       0.000000
    173.802347     318.502044     122.641130       0.000000
    172.212048     329.930009     123.552534       0.000000
    178.320404     342.300180     128.479598       0.000000
    185.861295     350.450422     131.226745       0.000000
    182.585594     364.849425     134.214848       0.000000
    183.738327     374.634142     134.407408       0.000000
    170.768131     379.135250     137.900992       0.000000
    167.444714     400.349078     129.589430       0.000000
    173.232331     392.328538     132.892721       0.000000
    190.198234     390.893795     129.307711       0.000000
    187.212355     402.168124     126.861431       0.000000
    169.218396     421.505013     122.281440       0.000000
    171.141624     430.249966     121.062316       0.000000
    164.104551     462.090684     114.873395       0.000000
    187.125662     447.444067     118.636171       0.000000
    189.950277     467.773903     119.024419       0.000000
    180.024414     469.422783     118.619634       0.000000
    178.466954     490.880215     123.534755       0.000000
    180.000000     500.000000     125.456011       0.000000
    190.000000      10.000000     127.113912       0.000000
    190.503584      20.154512     126.191176       0.000000
    200.214705      36.508892     122.376385       0.000000
    195.143871      50.512443     121.556568       0.000000
    187.239372      68.065057     122.185143       0.000000
    189.842896      57.881608     122.882879       0.000000
    184.989380      79.447395     125.081023       0.000000
    191.251543      85.993465     124.803689       0.000000
    198.713690      95.632944     125.209066       0.000000
    175.839062     100.758010     128.878973       0.000000
    186.342147     105.984860     127.424357       0.000000
    198.105369     131.850070     134.563574       0.000000
    184.567408     135.317318     134.904562       0.000000
    196.923337     157.267374     128.967436       0.000000
    192.385738     175.228232     128.785739       0.000000
    201.499997     175.833463     126.343349       0.000000
    201.592480     187.873845     122.492680       0.000000
    184.651205     182.638532     126.926148       0.000000
    193.929944     185.507639     127.254328       0.000000
    195.612287     194.752836     123.269457       0.000000
    179.372749     204.901657     121.593275       0.000000
    203.439440     197.641381     118.636911       0.000000
    200.911391     216.529340     114.240860       0.000000
    186.336247     249.159315     121.171133       0.000000
    196.370804     250.686068     121.681259       0.000000
    177.597850     260.800514     125.363097       0.000000
    205.269355     268.718814     128.494283       0.000000
    198.672771     275.664839     129.458145       0.000000
    207.526210     293.444251     129.289593       0.000000
    195.710537     284.351159     130.079354       0.000000
    180.669708     325.996160     121.565516       0.000000
    191.493710     332.618127     120.954008       0.000000
    182.180147     334.721413     123.814001       0.000000
    187.505011     342.919366     126.015840       0.000000
    198.996199     347.688184     123.973285       0.000000
    176.763247     357.571966     134.575735       0.000000
    195.324831     365.701256     129.179814       0.000000
    191.387079     381.960562     132.042772       0.000000
    181.489757     384.206719     134.333160       0.000000
    182.080971     395.107938     130.343278       0.000000
    195.056576     408.508228     124.546203       0.000000
    178.527294     418.238012     123.821551       0.000000
    184.794739     411.777935     124.016145       0.000000
    181.753522     427.202684     122.115194       0.000000
    177.478265     446.767159     118.156701       0.000000
    199.458973     449.232529     118.522828       0.000000
    197.373312     479.172126     120.719574       0.000000
    188.078492     481.382752     120.558993       0.000000
    187.614175     490.938044     123.638955       0.000000
    190.000000     500.000000     126.262367       0.000000
    200.000000      10.000000     127.031010       0.000000
    200.782711      20.543810     125.311371       0.000000
    192.500710      40.957246     123.968861       0.000000
    193.510951      29.250356     124.640011       0.000000
    198.784122      58.906897     120.439801       0.000000
    178.724176      71.500214     125.360658       0.000000
    194.027724      77.010498     123.037320       0.000000
    209.672131      90.328567     123.075966       0.000000
    201.462337      86.504422     123.642969       0.000000
    207.413243     100.656807     126.176819       0.000000
    197.747292     106.169047     126.439097       0.000000
    207.602577     123.262329     132.645281       0.000000
    192.857814     142.068588     133.152670       0.000000
    188.085453     152.160459     132.523885       0.000000
    200.193136     147.944078     131.663575       0.000000
    208.459510     162.230224     127.618663       0.000000
    177.350305     164.963036     131.079042       0.000000
    218.323303     175.908458     121.062181       0.000000
    221.762637     192.836720     113.794983       0.000000
    209.990330     182.628381     120.853668       0.000000
    214.339959     201.610147     113.375841       0.000000
    189.297209     202.374423     121.503915       0.000000
    205.435783     205.936096     115.328188       0.000000
    186.879263     232.730529     117.248685       0.000000
    203.423163     241.741068     119.318200       0.000000
    191.785156     241.616617     118.705140       0.000000
    175.708358     251.759348     122.694898       0.000000
    188.592977     276.227643     130.226124       0.000000
    193.228691     267.169484     127.163730       0.000000
    195.084853     296.825945     128.013717       0.000000
    191.961549     321.613459     121.801812       0.000000
    203.682973     329.768024     120.376694       0.000000
    213.175395     328.425956     120.360608       0.000000
    199.085772     338.900094     119.738831       0.000000
    208.616645     348.963127     121.990995       0.000000
    189.692085     358.680602     131.449605       0.000000
    205.466028     380.419390     125.853846       0.000000
    198.442104     387.061831     129.307264       0.000000
    197.186559     374.997204     130.621218       0.000000
    208.775293     402.515576     122.912913       0.000000
    196.582983     397.192980     127.060354       0.000000
    197.628078     417.528880     121.818327       0.000000
    197.258877     426.666227     119.800969       0.000000
    189.220160     421.375741     121.884897       0.000000
    189.611430     432.553053     120.732912       0.000000
    203.272724     465.291888     120.187429       0.000000
    205.023660     474.245591     121.113245       0.000000
    207.872463     482.980266     120.479439       0.000000
    196.615021     491.053351     125.226342       0.000000
    200.000000     500.000000     126.102702       0.000000
    210.000000      10.000000     125.487223       0.000000
    213.746703      19.995801     122.889128       0.000000
    220.923552      36.039042     118.055365       0.000000
    206.992618      29.465829     122.005663       0.000000
    208.957064      57.517608     119.699790       0.000000
    196.483142      68.286522     121.483963       0.000000
    226.485942      67.760545     119.072662       0.000000
    205.470311      76.925366     123.156292       0.000000
    230.426006      84.675576     120.184623       0.000000
    216.302475      97.604308     125.679588       0.000000
    212.402821     109.139063     129.595575       0.000000
    204.587657     115.014370     130.623818       0.000000
    197.374396     121.279325     132.830161       0.000000
    203.637315     139.371382     133.151963       0.000000
    213.018980     144.482113     131.339258       0.000000
    186.983548     161.454698     130.156436       0.000000
    211.977339     170.185937     124.463263       0.000000
    221.504632     167.052530     123.072697       0.000000
    230.968430     190.895002     112.203840       0.000000
    212.504850     191.267044     115.869193       0.000000
    225.083304     211.451649     111.122444       0.000000
    223.630439     201.869068     110.793119       0.000000
    209.669492     218.717513     113.564948       0.000000
    203.537828     228.011756     115.399948       0.000000
    215.846245     247.810416     121.415913       0.000000
    209.487812     254.292156     122.826440       0.000000
    186.955984     258.189960     124.159564       0.000000
    214.487763     273.712182     129.746922       0.000000
    214.571600     285.087167     131.512480       0.000000
    201.168249     305.914476     127.378764       0.000000
    194.191154     311.371711     125.146923       0.000000
    203.171514     320.047568     123.533910       0.000000
    223.598381     319.504614     122.429723       0.000000
    209.865753     337.286717     120.216288       0.000000
    217.417016     351.422098     121.505999       0.000000
    198.379280     357.288000     127.187462       0.000000
    214.037308     383.079640     124.083634       0.000000
    206.025891     392.012073     125.992034       0.000000
    232.002934     393.428332     123.310749       0.000000
    217.005181     394.598074     124.790786       0.000000
    207.077168     412.643490     120.870024       0.000000
    219.329214     418.257170     120.082196       0.000000
    194.703715     440.847313     119.377405       0.000000
    207.902676     443.663334     117.217352       0.000000
    215.927830     448.185521     117.027660       0.000000
    207.656884     455.991793     119.672627       0.000000
    215.606807     463.927010     119.028324       0.000000
    217.449327     481.533981     120.166715       0.000000
    206.081647     491.679663     123.047230       0.000000
    210.000000     500.000000     124.924138       0.000000
    220.000000      10.000000     123.378103       0.000000
    225.183800      18.233598     121.989386       0.000000
    217.991621      27.753269     120.137195       0.000000
    211.075943      39.023497     119.068396       0.000000
    203.303586      47.077149     118.370947       0.000000
    205.331970      65.680189     121.061696       0.000000
    234.435346      63.620319     116.260069       0.000000
    214.707960      69.202684     120.286840       0.000000
    214.551625      80.127775     122.259678       0.000000
    220.599258      87.568156     123.945789       0.000000
    222.032151     110.623681     127.763677       0.000000
    217.619849     118.457507     129.419278       0.000000
    211.726759     131.485476     131.836403       0.000000
    222.040851     132.777579     128.919716       0.000000
    227.033527     145.371234     127.095959       0.000000
    208.644751     152.703136     130.735109       0.000000
    196.139941     166.891186     128.031531       0.000000
    218.593984     184.564162     115.756266       0.000000
    227.785298     180.433922     114.852738       0.000000
    232.775190     200.633755     110.751284       0.000000
    219.166157     219.381466     112.471757       0.000000
    214.002913     210.823475     113.404260       0.000000
    215.744990     228.481182     114.965796       0.000000
    214.288040     237.248997     117.920387       0.000000
    218.922178     255.649557     125.038858       0.000000
    229.018546     262.041844     127.892321       0.000000
    199.346332     260.311689     124.939018       0.000000
    207.014168     278.792335     130.891814       0.000000
    224.822682     278.564916     130.749932       0.000000
    209.684140     312.373885     127.150648       0.000000
    214.806203     299.754656     128.085997       0.000000
    234.622924     320.697763     120.371489       0.000000
    214.217687     320.190304     124.082381       0.000000
    222.865556     328.224132     120.007531       0.000000
    219.233596     337.914401     120.131152       0.000000
    209.560567     357.960092     122.827048       0.000000
    205.853335     367.815918     125.147752       0.000000
    222.910678     386.937644     124.561920       0.000000
    223.862624     401.811909     123.938781       0.000000
    215.700171     410.033470     121.384011       0.000000
    206.839573     422.832061     118.998435       0.000000
    203.329120     435.689490     118.135513       0.000000
    215.980790     427.631181     118.342743       0.000000
    223.265663     436.260494     117.019856       0.000000
    213.626683     436.437209     117.262282       0.000000
    221.404716     455.576809     117.126088       0.000000
    214.369091     472.928489     120.166078       0.000000
    225.768912     478.221801     118.538339       0.000000
    217.021328     491.521743     122.979888       0.000000
    220.000000     500.000000     123.777399       0.000000
    230.000000      10.000000     122.158619       0.000000
    237.484660      19.156092     121.585578       0.000000
    231.501869      37.007338     118.075752       0.000000
    217.664659      45.568025     117.805994       0.000000
    228.703161      55.213379     115.644285       0.000000
    219.070837      54.759589     117.566437       0.000000
    244.090696      66.555350     114.636446       0.000000
    222.565283      76.642304     119.783868       0.000000
    236.093333      74.397889     117.036528       0.000000
    224.444185     101.761556     125.352385       0.000000
    233.865678     104.124294     126.088785       0.000000
    236.455307     128.219335     129.763543       0.000000
    228.351928     123.681338     130.072534       0.000000
    231.102359     137.164834     129.100062       0.000000
    219.046417     155.672579     127.733301       0.000000
    227.847228     157.530559     125.051580       0.000000
    230.664211     170.260708     119.395687       0.000000
    246.656503     168.177800     119.063182       0.000000
    248.931574     189.305151     112.901050       0.000000
    236.459933     182.461608     112.744703       0.000000
    240.398024     206.457327     111.285015       0.000000
    240.993652     220.296097     112.296371       0.000000
    224.838507     244.168053     119.077907       0.000000
    228.438205     253.229324     124.119506       0.000000
    237.281910     251.524011     123.100854       0.000000
    239.385015     261.530492     128.245596       0.000000
    232.016964     270.941445     130.191224       0.000000
    211.592610     262.316799     126.399262       0.000000
    232.388716     290.886395     128.886840       0.000000
    228.762573     301.100107     124.990818       0.000000
    221.876506     308.804501     124.585096       0.000000
    249.498859     332.882082     119.688810       0.000000
    236.695784     329.429270     118.552914       0.000000
    229.302177     336.392435     119.839753       0.000000
    218.120284     364.894091     122.579009       0.000000
    243.798694     362.540082     123.197680       0.000000
    233.331105     361.037225     122.430236       0.000000
    218.043333     374.732191     123.862210       0.000000
    229.764913     379.344308     123.774860       0.000000
    243.344026     391.871802     124.488923       0.000000
    237.109562     412.640263     125.092319       0.000000
    243.833965     418.659180     126.106659       0.000000
    229.899322     425.040983     120.652940       0.000000
    232.479904     436.198767     118.385273       0.000000
    227.347026     448.319160     116.134654       0.000000
    245.622267     459.229448     117.518624       0.000000
    224.087303     467.009777     118.154859       0.000000
    234.655083     482.071248     119.240096       0.000000
    227.910492     489.601945     120.422042       0.000000
    230.000000     500.000000     122.501913       0.000000
    240.000000      10.000000     121.345616       0.000000
    231.809962      27.889839     120.922550       0.000000
    231.979552      46.692401     116.086522       0.000000
    248.464888      47.721757     116.224874       0.000000
    240.115751      40.117664     116.293214       0.000000
    239.738852      54.072980     113.913599       0.000000
    253.786780      65.753074     115.765072       0.000000
    245.026456      75.641147     115.926704       0.000000
    246.527225      90.079909     120.214645       0.000000
    240.194225      84.032880     118.128795       0.000000
    229.794147      94.370753     121.971903       0.000000
    233.394391     113.301254     128.993817       0.000000
    237.422712     143.713282     125.714991       0.000000
    253.599181     140.133433     126.828020       0.000000
    247.647869     147.294857     124.408377       0.000000
    238.910078     152.352094     123.245205       0.000000
    239.549244     174.182968     115.389740       0.000000
    249.515048     180.514626     115.999527       0.000000
    267.734267     181.946607     115.711905       0.000000
    240.172926     195.131497     112.048139       0.000000
    233.297262     215.156110     111.231004       0.000000
    229.572055     224.584072     113.208727       0.000000
    226.171209     235.139243     116.717437       0.000000
    235.209074     240.846301     117.949322       0.000000
    245.619728     246.919644     121.202801       0.000000
    249.562927     269.540033     128.113205       0.000000
    240.918463     275.048189     129.447439       0.000000
    220.158573     265.289548     128.082493       0.000000
    223.285982     289.872958     131.752971       0.000000
    234.515976     311.400399     122.441528       0.000000
    240.191396     301.256097     126.384653       0.000000
    243.271453     314.698230     122.399068       0.000000
    234.759441     343.659624     120.577173       0.000000
    225.788119     345.620522     120.289861       0.000000
    224.332725     358.160491     121.840736       0.000000
    257.632172     365.518149     125.145501       0.000000
    263.992855     358.155678     125.448548       0.000000
    226.851027     368.949177     123.984322       0.000000
    238.319977     382.185896     123.159871       0.000000
    226.331030     412.161145     122.891214       0.000000
    236.718713     403.418840     124.586546       0.000000
    253.213938     416.110104     127.908927       0.000000
    239.626244     427.334979     123.556822       0.000000
    235.840745     444.582565     116.352600       0.000000
    235.893409     458.068100     117.274661       0.000000
    244.929662     450.289618     116.353600       0.000000
    238.432128     472.854546     118.223524       0.000000
    244.074578     479.801447     120.665965       0.000000
    240.622559     490.104415     121.521927       0.000000
    240.000000     500.000000     122.353668       0.000000
    250.000000      10.000000     120.457246       0.000000
    246.611715      21.678646     119.579307       0.000000
    256.754466      27.380001     118.302025       0.000000
    246.467720      31.055286     117.098916       0.000000
    254.673464      74.364995     118.372452       0.000000
    253.334711      55.840138     115.981689       0.000000
    264.255316      77.870077     121.239048       0.000000
    254.207612      94.221002     123.383654       0.000000
    263.250691      95.392410     125.344164       0.000000
    239.470210      95.825509     122.402916       0.000000
    242.596230     108.200957     128.607578       0.000000
    243.996328     136.695167     127.304704       0.000000
    245.524813     127.380050     129.803080       0.000000
    262.805317     135.402893     129.309450       0.000000
    256.887486     149.144372     125.306434       0.000000
    249.484451     159.561942     122.553983       0.000000
    237.280801     163.486537     120.526661       0.000000
    259.383079     160.788952     121.855053       0.000000
    258.150190     184.899220     115.407214       0.000000
    263.321151     193.537536     114.682540       0.000000
    251.776896     202.072012     112.761469       0.000000
    249.897118     216.030449     113.027727       0.000000
    238.068585     228.632298     114.322828       0.000000
    242.952758     236.113955     116.114245       0.000000
    247.064969     256.357716     125.530635       0.000000
    258.185278     264.220978     126.898240       0.000000
    243.568803     283.853062     128.539044       0.000000
    234.493569     281.849418     129.852425       0.000000
    246.567298     293.636883     126.553064       0.000000
    248.090738     307.025904     124.194381       0.000000
    254.014469     300.188564     125.281503       0.000000
    255.060401     312.803693     122.605009       0.000000
    258.783560     331.131541     119.893561       0.000000
    242.819595     339.363724     119.501907       0.000000
    237.029919     352.465283     121.393578       0.000000
    251.041556     357.163871     124.187071       0.000000
    263.528290     372.839326     128.423868       0.000000
    246.476521     371.531125     124.121487       0.000000
    258.778130     391.664362     129.076649       0.000000
    245.873034     409.071975     126.858530       0.000000
    257.260362     407.114095     128.444511       0.000000
    250.713989     425.337628     125.540460       0.000000
    243.765949     440.703061     118.260851       0.000000
    257.711434     445.616089     121.220797       0.000000
    253.743867     455.529714     118.975750       0.000000
    255.918303     467.529001     120.673446       0.000000
    247.256268     468.937751     118.421446       0.000000
    254.401350     477.942351     120.729573       0.000000
    250.538143     487.863423     121.577150       0.000000
    250.000000     500.000000     121.807698       0.000000
    260.000000      10.000000     121.160498       0.000000
    254.776847      17.636788     119.819392       0.000000
    254.186111      36.198790     117.038981       0.000000
    260.382837      49.018715     116.691405       0.000000
    263.036601      57.519203     118.799560       0.000000
    265.994483      68.520845     119.398476       0.000000
    253.096867      83.257630     118.697463       0.000000
    261.372638      86.408416     121.224137       0.000000
    255.611524     106.553292     128.827757       0.000000
    246.893482     100.137823     125.836262       0.000000
    252.681403     118.212835     129.975701       0.000000
    261.450407     114.049584     130.855667       0.000000
    241.234026     118.780496     129.568079       0.000000
    265.486302     124.411484     131.519982       0.000000
    266.763735     156.130169     124.344296       0.000000
    256.864846     175.082372     118.466085       0.000000
    264.655836     168.233207     121.381463       0.000000
    288.271542     180.319060     117.736848       0.000000
    278.908899     180.298639     116.148655       0.000000
    261.006165     203.604236     114.815546       0.000000
    260.946547     223.862093     116.658002       0.000000
    260.191471     213.841916     115.234223       0.000000
    257.498426     234.165239     116.896608       0.000000
    264.428887     241.589915     119.706449       0.000000
    271.215244     255.931438     124.992552       0.000000
    254.691479     244.209075     120.900834       0.000000
    260.087459     253.751198     125.060790       0.000000
    257.094398     291.018729     126.846273       0.000000
    263.703734     283.809578     127.714403       0.000000
    263.933915     298.337604     126.538380       0.000000
    262.789368     308.472396     124.685238       0.000000
    246.275327     323.141052     121.235941       0.000000
    264.768296     317.072653     121.717009       0.000000
    253.924711     340.789120     120.032030       0.000000
    245.995993     347.890791     122.757727       0.000000
    256.829402     350.135694     122.702439       0.000000
    256.384875     380.551380     126.608388       0.000000
    236.206943     372.448020     123.449621       0.000000
    265.471211     384.580470     131.051667       0.000000
    247.550826     382.643760     125.052021       0.000000
    249.919530     397.683569     126.645189       0.000000
    262.799425     419.447009     130.817399       0.000000
    250.493482     434.127667     122.176557       0.000000
    260.754297     437.770991     124.467244       0.000000
    267.143989     453.074967     123.297707       0.000000
    261.286112     460.035487     122.580563       0.000000
    266.372954     467.858583     122.986819       0.000000
    266.090935     477.430383     123.495210       0.000000
    261.936863     486.765116     123.741080       0.000000
    260.000000     500.000000     122.022287       0.000000
    270.000000      10.000000     123.058936       0.000000
    275.074333      20.206520     123.710150       0.000000
    263.697675      19.826599     120.979808       0.000000
    269.288724      27.426614     122.101307       0.000000
    263.477361      37.411796     118.879638       0.000000
    272.051058      50.104537     120.339116       0.000000
    273.517004      61.903484     121.693009       0.000000
    273.733283      74.593972     122.175322       0.000000
    272.483017      94.476977     127.901685       0.000000
    284.356046     101.039192     135.315633       0.000000
    274.877554     126.242508     131.952363       0.000000
    273.118099     136.043247     129.381356       0.000000
    283.619497     127.009650     134.509839       0.000000
    255.591133     127.013970     130.816075       0.000000
    290.737383     134.349917     134.617001       0.000000
    276.201599     164.441607     122.856594       0.000000
    283.586207     171.145449     120.489004       0.000000
    281.529842     198.603307     114.990080       0.000000
    271.575150     203.227855     116.676165       0.000000
    272.721423     194.235974     115.405774       0.000000
    269.152005     212.447120     115.732963       0.000000
    249.085792     229.065019     113.288596       0.000000
    271.167112     222.463934     117.717848       0.000000
    267.550273     231.349477     117.910539       0.000000
    282.835320     257.625844     124.654638       0.000000
    267.507912     266.420822     127.336438       0.000000
    272.486920     246.389083     122.045137       0.000000
    252.402466     280.610355     127.898506       0.000000
    283.555606     298.169540     122.104142       0.000000
    274.796136     300.810152     123.560338       0.000000
    290.329258     310.084553     119.669133       0.000000
    280.931478     310.905493     120.062506       0.000000
    257.223729     322.311269     121.325786       0.000000
    267.040654     348.862542     123.124827       0.000000
    273.719200     355.975163     125.442073       0.000000
    269.750825     365.188405     128.785582       0.000000
    272.785074     374.544168     133.284898       0.000000
    275.097431     383.597153     133.193599       0.000000
    279.837029     395.988344     136.131017       0.000000
    270.943812     393.486883     134.547193       0.000000
    264.033442     400.687871     131.908941       0.000000
    266.619204     411.598364     133.277131       0.000000
    272.278150     419.650994     132.424871       0.000000
    260.300356     427.332155     127.121421       0.000000
    269.771975     433.503400     128.147622       0.000000
    268.683461     444.014111     123.979769       0.000000
    275.954659     461.932172     122.707929       0.000000
    280.084106     479.621042     126.042964       0.000000
    270.718859     489.904952     124.994673       0.000000
    270.000000     500.000000     123.897865       0.000000
    280.000000      10.000000     125.913724       0.000000
    286.655668      21.190785     126.821311       0.000000
    282.059295      30.458005     124.569046       0.000000
    272.228531      39.280101     121.990813       0.000000
    284.191432      52.439156     124.016369       0.000000
    286.408687      61.607194     123.716477       0.000000
    281.568339      70.115759     123.519148       0.000000
    283.921637      81.047137     125.463688       0.000000
    270.771808      84.261216     124.894610       0.000000
    289.167488      93.564706     133.403147       0.000000
    264.893969     104.017429     128.666231       0.000000
    270.852701     116.436694     131.816596       0.000000
    289.595543     152.985610     130.935563       0.000000
    265.971268     144.830987     127.728652       0.000000
    285.027223     141.410201     131.061416       0.000000
    275.702108     148.739210     127.798700       0.000000
    272.102812     173.541704     119.150634       0.000000
    286.413406     163.743467     125.273212       0.000000
    288.626302     215.246491     114.365193       0.000000
    280.335573     210.621531     114.503053       0.000000
    290.164653     225.905586     116.541826       0.000000
    280.801473     220.549166     116.261216       0.000000
    281.422714     230.861537     118.824827       0.000000
    274.576080     238.089757     118.486667       0.000000
    281.520080     248.611746     123.375436       0.000000
    286.717023     269.274396     126.215138       0.000000
    260.125030     273.574850     128.399744       0.000000
    273.915137     278.014199     126.274208       0.000000
    271.764334     289.819328     126.075243       0.000000
    281.922944     288.228166     124.535646       0.000000
    271.631106     311.210862     122.501822       0.000000
    268.000067     328.893183     119.202843       0.000000
    278.166321     328.359868     119.793687       0.000000
    264.872284     339.126398     120.054196       0.000000
    278.386868     346.193137     122.245648       0.000000
    281.764341     365.325683     129.461974       0.000000
    282.397807     375.071536     132.404361       0.000000
    285.604561     384.231577     133.829361       0.000000
    286.242393     408.838343     133.713287       0.000000
    272.447488     402.377117     135.467666       0.000000
    276.731100     411.084035     134.043190       0.000000
    289.360278     425.747616     127.806388       0.000000
    276.853166     427.726075     130.276226       0.000000
    293.203729     434.478079     127.463756       0.000000
    280.835933     441.801953     126.071311       0.000000
    276.580936     451.028873     123.589774       0.000000
    274.393559     472.941507     123.409476       0.000000
    283.672335     469.584078     124.862855       0.000000
    279.670232     490.617152     127.507952       0.000000
    280.000000     500.000000     126.651897       0.000000
    290.000000      10.000000     127.524407       0.000000
    295.033994      18.063746     127.949897       0.000000
    290.803755      32.752486     125.914620       0.000000
    281.216250      41.263085     123.414351       0.000000
    291.103011      41.855682     125.309528       0.000000
    294.961871      51.483122     125.583570       0.000000
    296.061466      62.111430     124.985521       0.000000
    291.760521      85.811872     127.424517       0.000000
    281.250375      89.512153     129.049709       0.000000
    298.501092      92.236388     132.634150       0.000000
    296.499447     103.771213     136.715656       0.000000
    296.677340     114.289805     138.545964       0.000000
    275.837918     105.164063     133.095681       0.000000
    279.720926     114.577359     134.359254       0.000000
    302.659983     147.594192     133.606131       0.000000
    294.836766     160.307865     131.266418       0.000000
    280.787999     156.583008     127.087148       0.000000
    296.737328     183.676247     119.569454       0.000000
    283.043787     188.307732     114.271439       0.000000
    291.522613     200.902383     113.732422       0.000000
    296.144650     210.219790     114.037304       0.000000
    296.954147     231.415402     119.887462       0.000000
    307.249306     234.288914     121.252718       0.000000
    289.042156     237.201218     120.136303       0.000000
    291.361539     247.710538     122.420143       0.000000
    294.075204     260.655140     124.966480       0.000000
    277.518924     266.606089     126.324176       0.000000
    285.316100     278.703745     125.847168       0.000000
    294.387992     293.116083     122.496624       0.000000
    286.754024     320.243896     119.493649       0.000000
    295.930700     320.167244     119.194325       0.000000
    276.703518     318.922819     120.472172       0.000000
    287.272034     329.299040     119.381143       0.000000
    274.891417     337.245375     119.864786       0.000000
    287.761077     338.297189     120.216710       0.000000
    291.820556     347.162258     122.573732       0.000000
    287.438271     355.363109     125.303312       0.000000
    290.901730     365.469884     128.078672       0.000000
    290.701794     397.120545     135.356479       0.000000
    302.975362     399.357399     130.522931       0.000000
    283.472111     419.015542     129.738264       0.000000
    299.911175     423.884519     126.646323       0.000000
    284.097723     433.491712     128.342002       0.000000
    288.224402     447.971597     125.767546       0.000000
    299.698307     444.804982     126.753353       0.000000
    297.379092     454.885369     127.188914       0.000000
    285.072869     456.495727     124.772662       0.000000
    292.080918     478.082765     127.245785       0.000000
    288.671502     487.677281     128.090994       0.000000
    290.000000     500.000000     127.661660       0.000000
    300.000000      10.000000     128.425080       0.000000
    299.920970      28.208785     128.348998       0.000000
    303.152933      37.899196     127.916765       0.000000
    312.702470      40.985180     128.296135       0.000000
    306.080558      59.568590     126.224473       0.000000
    309.152255      69.002509     126.654483       0.000000
    290.422906      72.564753     125.921382       0.000000
    299.781249      73.475560     125.207711       0.000000
    304.510515      98.852476     134.541178       0.000000
    321.538509      94.569686     131.592541       0.000000
    309.702288      90.298974     130.374248       0.000000
    305.124888     108.406279     138.000958       0.000000
    288.614353     109.234879     137.411881       0.000000
    300.025136     129.043305     139.104512       0.000000
    307.023367     158.035629     133.717687       0.000000
    302.984030     168.056539     129.049499       0.000000
    295.019850     170.771484     125.676856       0.000000
    303.156160     178.230488     123.318644       0.000000
    293.714861     192.165438     115.452547       0.000000
    304.867372     207.091200     114.022631       0.000000
    309.583173     216.417557     115.750312       0.000000
    298.421678     219.410313     116.010499       0.000000
    305.377980     225.803852     118.833549       0.000000
    299.275210     240.234931     121.407947       0.000000
    300.101267     253.120517     125.140591       0.000000
    314.136953     265.801472     127.499584       0.000000
    301.989895     268.041827     126.880116       0.000000
    294.417882     274.417026     126.203474       0.000000
    304.411852     294.037796     122.069819       0.000000
    297.183576     303.503631     121.077037       0.000000
    308.068900     302.692344     121.560107       0.000000
    304.666066     324.046942     120.104293       0.000000
    307.178359     335.122341     119.982228       0.000000
    297.237316     333.083523     120.445769       0.000000
    299.959055     342.738343     121.669302       0.000000
    296.211313     357.553174     124.572168       0.000000
    303.703247     363.090067     124.236328       0.000000
    292.174793     375.028262     129.656716       0.000000
    303.400187     384.706593     127.909578       0.000000
    311.359885     389.362223     125.099023       0.000000
    294.712813     405.490372     132.066597       0.000000
    296.681575     415.214936     128.793289       0.000000
    306.502473     434.769266     124.096261       0.000000
    312.627344     446.940511     124.376348       0.000000
    319.421536     454.058597     125.015544       0.000000
    292.517596     464.906889     125.218738       0.000000
    299.157815     471.307140     127.060300       0.000000
    310.446788     490.678070     129.485850       0.000000
    301.548855     480.315259     127.226008       0.000000
    300.000000     500.000000     128.643287       0.000000
    310.000000      10.000000     131.286759       0.000000
    305.247462      19.947316     129.969054       0.000000
    310.867136      31.302936     130.966552       0.000000
    304.054265      50.099115     127.924494       0.000000
    327.427395      64.492584     124.163183       0.000000
    326.856107      55.581999     126.429815       0.000000
    313.203002      77.285273     127.260763       0.000000
    320.761048      70.435211     125.541025       0.000000
    304.177100      83.542660     127.618309       0.000000
    328.665240      87.112229     126.936035       0.000000
    303.748193     120.134787     139.113110       0.000000
    291.464381     123.424916     139.016527       0.000000
    300.252938     138.505894     136.614840       0.000000
    294.127166     144.989074     132.224109       0.000000
    311.526618     149.939078     135.743914       0.000000
    320.470540     151.409650     135.295442       0.000000
    312.167350     173.581619     125.836977       0.000000
    319.715603     177.643183     122.620065       0.000000
    305.235869     194.432128     116.293414       0.000000
    314.151414     199.301753     115.938638       0.000000
    316.367923     209.554695     116.261941       0.000000
    315.504585     223.475487     119.144375       0.000000
    325.848465     227.607457     122.249677       0.000000
    317.452346     234.669990     122.318599       0.000000
    307.115598     259.272399     126.459904       0.000000
    308.022503     275.965121     125.844861       0.000000
    305.817257     284.900630     124.788011       0.000000
    296.525148     283.154982     124.870506       0.000000
    319.854115     283.083098     123.273309       0.000000
    325.300659     292.372813     122.392235       0.000000
    316.134650     293.346460     122.706311       0.000000
    303.326427     313.865542     120.838366       0.000000
    313.865968     320.666918     119.793944       0.000000
    315.870187     331.027824     119.405309       0.000000
    321.881043     351.644778     119.960844       0.000000
    318.234439     340.090638     119.036353       0.000000
    312.672152     347.653719     120.318974       0.000000
    301.193401     373.436612     126.837007       0.000000
    313.970754     376.278434     122.826580       0.000000
    293.992844     387.621232     132.683919       0.000000
    308.300992     407.879855     130.148764       0.000000
    306.157579     416.994625     128.551963       0.000000
    317.871253     419.308483     123.361229       0.000000
    319.505996     470.747518     127.633010       0.000000
    314.053188     461.846370     127.583613       0.000000
    306.469531     453.285482     126.248750       0.000000
    303.477470     463.198160     127.358426       0.000000
    313.829050     482.032577     128.729285       0.000000
    298.722770     490.320223     128.042371       0.000000
    310.000000     500.000000     130.856227       0.000000
    320.000000      10.000000     131.794737       0.000000
    314.226886      18.808276     131.559624       0.000000
    320.898282      26.628721     129.850060       0.000000
    313.010215      52.744240     126.739967       0.000000
    317.124798      60.620688     125.191296       0.000000
    334.320829      71.546461     123.282279       0.000000
    343.859457      70.739657     122.779672       0.000000
    325.558819      78.522957     125.488372       0.000000
    317.364423      85.273491     128.730494       0.000000
    332.744848     107.965116     131.928304       0.000000
    323.919640     104.891706     134.879150       0.000000
    313.470839     112.979523     137.977068       0.000000
    312.066385     128.933477     139.879125       0.000000
    309.028912     139.627801     138.669387       0.000000
    322.723606     132.257578     138.110906       0.000000
    331.465369     172.581101     123.848105       0.000000
    314.621753     163.375752     130.743970       0.000000
    319.848810     186.734953     119.119685       0.000000
    309.712981     185.055213     120.199139       0.000000
    324.302858     204.910057     117.759449       0.000000
    321.457402     216.508988     119.031755       0.000000
    335.332373     222.485498     122.547828       0.000000
    314.941861     243.478902     122.825013       0.000000
    306.436584     246.913447     123.012213       0.000000
