    268.115615     158.854673     124.480807       0.000000
    255.308154     171.676896     118.701088       0.000000
    264.546383     168.245139     120.078014       0.000000
    288.506739     179.125167     120.456194       0.000000
    277.604759     182.052175     117.129333       0.000000
    260.950712     202.254533     112.397186       0.000000
    258.934087     221.616415     115.062380       0.000000
    257.519189     210.895721     112.493223       0.000000
    254.988929     235.617063     119.460773       0.000000
    263.885396     243.062754     122.344645       0.000000
    272.810720     257.440744     126.101375       0.000000
    253.309669     244.756414     121.698979       0.000000
    259.592109     256.563995     124.404190       0.000000
    255.294656     292.513327     127.096138       0.000000
    259.848881     284.309385     128.715435       0.000000
    263.213697     297.910583     123.849934       0.000000
    261.132280     310.543174     121.649119       0.000000
    246.474654     323.268692     120.473805       0.000000
    266.176954     318.379831     119.749454       0.000000
    252.836221     341.591526     119.864333       0.000000
    247.454666     351.382906     121.937691       0.000000
    257.614623     349.738479     122.592801       0.000000
    258.285023     380.053371     127.856089       0.000000
    240.575972     373.099917     122.401848       0.000000
    266.709570     382.732864     131.820731       0.000000
    247.171562     382.997428     125.022567       0.000000
    247.016940     398.105986     126.519578       0.000000
    263.620192     419.230533     129.940865       0.000000
    252.839216     435.813831     120.703673       0.000000
    261.488773     436.252552     123.779013       0.000000
    268.328358     453.168418     123.217485       0.000000
    258.891543     456.480683     120.353265       0.000000
    264.112794     467.490180     120.920167       0.000000
    265.209629     476.454163     121.202860       0.000000
    261.601014     489.750331     122.873559       0.000000
    260.000000     500.000000     122.413686       0.000000
    270.000000      10.000000     122.826111       0.000000
    275.234077      19.079262     122.994615       0.000000
    266.307700      20.338010     119.604441       0.000000
    269.842918      28.921020     120.390469       0.000000
    263.261262      38.783623     119.894888       0.000000
    274.050879      49.165053     121.245887       0.000000
    273.041506      59.207560     121.201428       0.000000
    275.288433      75.566601     123.503100       0.000000
    276.710156      96.334030     129.927279       0.000000
    283.168772     101.531446     135.053452       0.000000
    272.179987     129.187090     133.534558       0.000000
    275.272265     139.739278     131.385118       0.000000
    282.003972     127.518066     136.773234       0.000000
    253.175469     126.934182     128.952402       0.000000
    291.303282     132.635780     135.959879       0.000000
    276.974242     164.458743     123.661642       0.000000
    283.446404     170.875846     120.503291       0.000000
    279.026138     201.756156     114.459998       0.000000
    270.136151     202.454064     113.084105       0.000000
    272.747009     193.494850     114.563622       0.000000
    267.342236     211.133435     113.253349       0.000000
    248.712190     227.383652     115.695729       0.000000
    268.142788     220.504497     114.264871       0.000000
    266.323709     229.925259     117.503310       0.000000
    282.449504     258.795081     125.559454       0.000000
    271.291872     266.183899     127.875722       0.000000
    271.350642     248.976324     123.063005       0.000000
    251.246701     278.652543     130.078275       0.000000
    286.459910     297.994125     121.595646       0.000000
    276.446388     296.978419     122.628949       0.000000
    289.819987     308.008480     121.461631       0.000000
    279.967106     308.206761     122.082696       0.000000
    257.755216     322.743689     119.021379       0.000000
    266.816217     348.845443     122.589654       0.000000
    276.180338     353.219668     124.056872       0.000000
    271.510765     365.113408     129.096173       0.000000
    274.555789     375.043267     132.585058       0.000000
    276.174990     385.338822     134.016394       0.000000
    281.411855     396.968646     136.294794       0.000000
    269.641372     391.773954     133.310430       0.000000
    261.534854     398.187475     132.149912       0.000000
    266.137529     410.734713     132.507903       0.000000
    274.355054     419.124349     132.691876       0.000000
    261.344287     427.606002     126.925453       0.000000
    270.849625     432.465666     126.340092       0.000000
    266.666712     444.071255     125.401162       0.000000
    278.466628     461.797080     122.919061       0.000000
    278.149698     481.213584     125.673989       0.000000
    272.447642     488.697041     124.175198       0.000000
    270.000000     500.000000     123.186204       0.000000
    280.000000      10.000000     125.245576       0.000000
    284.618495      18.564530     126.944455       0.000000
    280.500708      27.668886     124.371948       0.000000
    274.633871      37.099824     122.393105       0.000000
    283.466193      51.026452     123.760862       0.000000
    284.791597      60.071122     124.175455       0.000000
    278.164370      66.439298     123.038791       0.000000
    283.121234      78.691607     127.365081       0.000000
    274.183234      85.741083     125.504813       0.000000
    290.956969      93.456613     132.809332       0.000000
    264.700250     104.576899     128.045389       0.000000
    271.758002     118.870838     134.213785       0.000000
    290.269736     149.399945     130.135671       0.000000
    263.379973     144.975092     129.016817       0.000000
    284.803835     141.998059     132.153973       0.000000
    275.671275     151.557161     128.090223       0.000000
    272.472185     173.436869     118.964722       0.000000
    288.197076     163.370019     124.987980       0.000000
    287.223510     214.202381     115.022991       0.000000
    278.293831     211.126820     114.232677       0.000000
    290.074878     223.394548     116.926893       0.000000
    279.581384     220.658696     114.765399       0.000000
    278.228986     229.544997     116.778983       0.000000
    272.812769     240.177007     120.667771       0.000000
    280.442675     247.271106     122.558437       0.000000
    290.288203     268.069982     126.354761       0.000000
    264.392191     275.719381     131.120875       0.000000
    274.655078     279.657202     126.391129       0.000000
    270.434639     288.182653     126.019269       0.000000
    285.079641     286.654337     123.118650       0.000000
    270.208221     306.518360     122.262325       0.000000
    267.443484     328.857872     119.603316       0.000000
    279.151320     328.182447     119.885412       0.000000
    265.559661     337.784481     120.019925       0.000000
    279.899839     344.752992     122.783693       0.000000
    284.515777     365.926790     130.943435       0.000000
    284.915859     374.861701     133.331023       0.000000
    286.805015     389.820791     134.318642       0.000000
    285.006735     405.262698     135.327692       0.000000
    272.354145     402.250123     135.260587       0.000000
    277.866116     410.929216     136.280167       0.000000
    287.923463     424.811062     130.266013       0.000000
    278.804379     426.781478     130.056692       0.000000
    297.411543     435.585917     126.419376       0.000000
    277.803439     441.148657     126.214696       0.000000
    277.532879     450.904502     124.374867       0.000000
    273.403830     470.994640     122.619741       0.000000
    283.556423     471.995042     126.100968       0.000000
    281.321690     490.130142     126.379030       0.000000
    280.000000     500.000000     125.594738       0.000000
    290.000000      10.000000     127.323765       0.000000
    294.880987      18.048352     129.137154       0.000000
    290.616501      29.649190     128.330804       0.000000
    283.739359      41.240304     124.203818       0.000000
    292.666823      41.225368     126.519241       0.000000
    295.811802      51.936380     124.610360       0.000000
    296.312208      61.834643     124.115775       0.000000
    292.652288      83.739090     130.248258       0.000000
    281.965802      87.422912     129.766847       0.000000
    299.357245      90.316641     131.350623       0.000000
    293.403323     102.317848     137.234802       0.000000
    294.965357     113.826646     139.145235       0.000000
    273.804117     104.840339     131.192760       0.000000
    280.766963     117.098116     136.407305       0.000000
    299.777236     150.314196     134.321163       0.000000
    296.971203     160.579711     128.746378       0.000000
    283.520153     155.710771     126.416841       0.000000
    297.056331     181.731078     119.119425       0.000000
    283.733510     189.576281     116.501370       0.000000
    291.015981     200.963687     113.481706       0.000000
    297.702939     210.723200     114.333467       0.000000
    296.700683     230.375020     117.971231       0.000000
    304.079763     236.349572     119.764448       0.000000
    284.402723     237.083374     119.377544       0.000000
    289.521341     249.546510     122.146818       0.000000
    292.048590     258.591188     124.880706       0.000000
    279.844397     271.384171     127.594642       0.000000
    287.405433     276.551960     125.322622       0.000000
    295.588965     292.917096     123.268780       0.000000
    285.496425     317.473389     120.216742       0.000000
    294.789911     319.962806     119.333818       0.000000
    276.164779     319.021331     121.366119       0.000000
    288.607785     329.810459     120.475723       0.000000
    275.852600     336.348315     121.748860       0.000000
    288.278899     339.375667     121.571767       0.000000
    288.574133     348.267434     123.213348       0.000000
    285.054394     357.800802     126.864982       0.000000
    293.816036     367.653535     128.379660       0.000000
    291.156367     398.306937     134.348622       0.000000
    300.442460     393.374699     130.752313       0.000000
    284.863900     416.551650     133.798357       0.000000
    297.282872     426.078225     127.592172       0.000000
    285.042364     433.309882     126.876806       0.000000
    289.670388     445.457062     124.976474       0.000000
    301.290634     446.043496     125.093185       0.000000
    296.153053     455.694284     126.314703       0.000000
    286.484176     456.819068     124.637835       0.000000
    292.171173     480.642974     127.250831       0.000000
    290.609309     489.876353     127.573098       0.000000
    290.000000     500.000000     127.361884       0.000000
    300.000000      10.000000     130.284924       0.000000
    300.252216      31.881878     130.845477       0.000000
    300.985861      43.861569     129.116419       0.000000
    310.861294      42.391775     130.679191       0.000000
    306.371668      60.879468     124.589259       0.000000
    309.918298      70.487849     124.922978       0.000000
    288.483806      71.023678     126.227640       0.000000
    299.050199      70.742793     126.022383       0.000000
    303.166484      99.275121     135.296299       0.000000
    322.208538      94.949964     129.813928       0.000000
    309.383353      91.447130     131.534307       0.000000
    303.762309     112.125522     138.170501       0.000000
    286.782640     109.273921     138.590837       0.000000
    300.009893     131.903414     138.418771       0.000000
    307.682104     156.615997     134.094932       0.000000
    304.808611     165.671151     129.975032       0.000000
    295.413249     168.819020     125.130263       0.000000
    301.697438     174.777979     122.527081       0.000000
    293.075168     190.942537     115.117353       0.000000
    303.892138     204.044531     115.948848       0.000000
    307.731699     216.189642     116.660131       0.000000
    298.909154     220.869667     116.816578       0.000000
    306.062528     226.679509     118.440747       0.000000
    296.581337     241.744815     120.308164       0.000000
    299.850670     252.505255     124.172764       0.000000
    314.308987     265.077988     128.736284       0.000000
    302.330223     266.945594     127.425086       0.000000
    297.112770     274.477952     125.865822       0.000000
    304.375699     295.637385     122.916151       0.000000
    299.734454     303.727114     121.326041       0.000000
    309.886239     303.350611     121.593915       0.000000
    303.818708     322.965238     119.241484       0.000000
    307.033912     335.167776     120.172375       0.000000
    297.797105     330.333848     120.258419       0.000000
    298.608506     345.007413     121.823656       0.000000
    294.004905     356.480974     125.010031       0.000000
    303.639307     364.543528     123.628045       0.000000
    294.234330     376.431672     132.102041       0.000000
    303.859462     383.200227     128.458691       0.000000
    308.890381     390.090427     125.085701       0.000000
    296.071176     406.241517     132.307950       0.000000
    294.339633     417.018403     131.648468       0.000000
    307.467712     434.767855     125.176351       0.000000
    310.640211     443.273148     124.626257       0.000000
    320.572769     448.690805     124.241324       0.000000
    292.217155     465.560689     126.509654       0.000000
    297.460245     473.035957     126.765274       0.000000
    308.963434     490.658775     130.773922       0.000000
    304.951316     479.242124     128.555852       0.000000
    300.000000     500.000000     129.750306       0.000000
    310.000000      10.000000     132.000150       0.000000
    302.596720      23.098470     130.914419       0.000000
    312.404119      33.307765     133.194069       0.000000
    305.336136      51.538615     125.886976       0.000000
    329.429884      64.625873     125.152977       0.000000
    328.449698      55.851296     126.921054       0.000000
    315.245814      77.866136     126.555980       0.000000
    320.273624      70.127996     125.593353       0.000000
    305.054607      83.080275     129.029837       0.000000
    328.198306      87.239177     127.073750       0.000000
    301.903869     122.155888     138.400224       0.000000
    290.095851     122.728707     138.137226       0.000000
    302.432062     140.504928     136.465735       0.000000
    293.932962     141.595239     132.965286       0.000000
    311.937742     147.917935     135.893829       0.000000
    321.000704     156.645035     134.499078       0.000000
    310.734618     175.188760     122.550544       0.000000
    322.396130     175.874262     123.263980       0.000000
    303.770580     192.579432     115.885278       0.000000
    313.609155     196.171393     115.587398       0.000000
    314.424003     206.189373     116.322180       0.000000
    315.372125     220.894115     119.410252       0.000000
    323.927301     224.102337     121.613762       0.000000
    314.501227     230.705934     122.615195       0.000000
    307.532068     259.089949     126.283031       0.000000
    306.112835     275.918508     126.789584       0.000000
    309.375644     285.555065     125.572676       0.000000
    300.008373     284.524153     125.197970       0.000000
    318.756170     286.664015     125.646130       0.000000
    323.920535     294.201008     122.514436       0.000000
    314.265552     294.986312     122.764578       0.000000
    303.070584     313.658892     119.508683       0.000000
    313.322220     321.586748     118.638463       0.000000
    315.210121     330.405405     118.872817       0.000000
    320.130692     353.653264     118.071321       0.000000
    315.681994     340.027350     119.245780       0.000000
    310.097332     348.035478     120.387491       0.000000
    302.854338     373.705097     127.205597       0.000000
    312.921694     380.230424     123.895134       0.000000
    295.924540     385.451400     132.312615       0.000000
    304.988484     407.176366     129.065129       0.000000
    302.943307     417.023979     128.585122       0.000000
    320.090043     418.783651     121.857071       0.000000
    321.339556     471.547693     128.969558       0.000000
    315.556354     463.976517     125.525924       0.000000
    310.095297     453.252411     124.781030       0.000000
    303.409264     461.949493     126.192564       0.000000
    314.329886     481.969918     129.894136       0.000000
    300.013442     489.087208     130.017838       0.000000
    310.000000     500.000000     131.881509       0.000000
    320.000000      10.000000     131.986481       0.000000
    315.616212      19.336817     131.774404       0.000000
    322.568737      27.113126     132.375431       0.000000
    314.332029      53.215920     126.184819       0.000000
    319.497624      61.022414     125.660721       0.000000
    335.772375      72.415345     124.364280       0.000000
    343.986702      68.413664     123.910490       0.000000
    327.265631      77.637807     124.818395       0.000000
    318.496478      85.916798     128.934173       0.000000
    332.459925     106.512747     129.166225       0.000000
    322.205044     103.981702     132.835977       0.000000
    312.811106     111.180753     136.605960       0.000000
    311.713439     125.279966     138.186466       0.000000
    312.723381     137.021872     138.363851       0.000000
    321.523603     130.016617     137.011653       0.000000
    329.741540     171.053504     125.630096       0.000000
    313.492639     163.402799     131.014237       0.000000
    318.009393     185.625401     118.303266       0.000000
    308.834243     185.328556     118.801621       0.000000
    324.093584     203.360352     115.667607       0.000000
    321.621456     214.334286     118.630268       0.000000
    333.080460     221.924184     122.068672       0.000000
    316.438402     241.276406     123.247091       0.000000
    305.472203     245.632473     122.530203       0.000000
    323.970639     255.683143     125.081497       0.000000
    315.118428     252.153375     125.381865       0.000000
    335.009546     261.909981     124.283064       0.000000
    316.511590     275.726549     126.856166       0.000000
    329.500017     284.352996     123.781134       0.000000
    318.893510     302.860911     121.446454       0.000000
    312.189876     312.505497     119.532118       0.000000
    333.345995     330.812082     116.715268       0.000000
    326.289181     342.305422     115.882486       0.000000
    342.280310     332.227041     115.750732       0.000000
    328.700701     351.675496     115.734715       0.000000
    314.830982     361.353424     117.604565       0.000000
    304.977062     355.686409     120.224446       0.000000
    312.418106     370.025042     121.492354       0.000000
    318.118323     394.100017     121.947912       0.000000
    320.310866     403.275266     122.036139       0.000000
    309.942633     423.973769     125.183692       0.000000
    317.724917     430.634772     123.183696       0.000000
    329.960175     445.525654     122.297963       0.000000
    325.866744     426.981283     120.722158       0.000000
    324.039422     459.893387     126.173126       0.000000
    350.787791     448.436307     121.490116       0.000000
    307.773381     470.232856     126.730236       0.000000
    323.557022     480.080466     130.878934       0.000000
    321.861428     490.877532     131.982042       0.000000
    320.000000     500.000000     132.713177       0.000000
    330.000000      10.000000     131.283588       0.000000
    336.373667      18.442650     129.761146       0.000000
    325.830552      18.668376     131.265005       0.000000
    331.036387      31.140188     131.113021       0.000000
    323.589031      37.791951     131.422512       0.000000
    345.398937      55.022656     124.414590       0.000000
    334.911308      49.458048     126.183885       0.000000
    331.196150      96.505125     127.179685       0.000000
    352.622865      97.889494     121.916774       0.000000
    325.349193     113.364681     134.489247       0.000000
    336.286523     117.430867     132.066540       0.000000
    339.591552     101.179627     125.014092       0.000000
    319.437529     120.500719     136.882729       0.000000
    331.233865     131.054476     135.067452       0.000000
    320.632493     141.423109     136.691973       0.000000
    321.543714     167.834807     127.729113       0.000000
    328.902147     161.814693     129.470327       0.000000
    329.689293     182.779681     118.781385       0.000000
    334.007263     192.605358     117.081061       0.000000
    334.544555     202.697854     116.017797       0.000000
    330.101993     210.852851     118.222363       0.000000
    325.020132     235.388860     124.858602       0.000000
    332.452405     242.807092     125.675466       0.000000
    323.618543     246.574259     125.502321       0.000000
    336.759427     252.218209     125.558346       0.000000
    326.286342     264.629170     124.995551       0.000000
    335.220676     274.159282     124.160053       0.000000
    325.399853     274.832110     124.877847       0.000000
    339.227063     286.765229     122.080576       0.000000
    334.340278     295.300024     122.049176       0.000000
    323.847328     332.813932     116.775525       0.000000
    323.501133     310.684111     120.225295       0.000000
    323.316286     320.575951     118.089351       0.000000
    335.857941     339.763208     115.290078       0.000000
    341.914347     349.003617     114.737657       0.000000
    329.534594     373.300160     116.168335       0.000000
    323.401909     364.542398     116.342042       0.000000
    320.702710     373.354304     119.361889       0.000000
    322.637104     384.611005     119.740913       0.000000
    329.230987     397.568921     118.498796       0.000000
    311.211265     401.267559     124.628912       0.000000
    325.063924     410.892607     119.969364       0.000000
    335.415010     429.516877     120.034520       0.000000
    319.512996     439.442155     122.222522       0.000000
    338.841436     447.725058     122.205411       0.000000
    335.939192     465.965686     125.423466       0.000000
    330.532753     473.520349     128.314064       0.000000
    330.858506     489.345888     131.030617       0.000000
    340.339031     490.471970     130.813060       0.000000
    330.000000     500.000000     131.209685       0.000000
    340.000000      10.000000     131.964841       0.000000
    345.321654      19.158249     130.719240       0.000000
    340.599760      28.225003     129.191397       0.000000
    341.916937      37.584530     126.525093       0.000000
    332.043306      40.779043     128.738367       0.000000
    337.615670      59.693647     125.962316       0.000000
    322.912867      47.776036     128.334385       0.000000
    339.040827      81.279209     123.086999       0.000000
    340.825920      91.356243     124.268923       0.000000
    341.023030     109.893259     127.161826       0.000000
    313.808086      99.775094     132.864266       0.000000
    341.306832     124.821824     130.322717       0.000000
    328.470428     121.695485     136.519331       0.000000
    350.242970     127.696147     128.874140       0.000000
    331.103009     141.401580     134.362693       0.000000
    338.925308     174.773997     121.991720       0.000000
    347.326114     181.048485     119.684318       0.000000
    354.129572     188.735889     119.977031       0.000000
    324.791766     192.381513     116.031583       0.000000
    338.754254     183.989467     118.940560       0.000000
    345.117190     206.550465     118.470380       0.000000
    334.678734     233.168580     125.483554       0.000000
    345.091089     230.553688     126.190615       0.000000
    345.429672     248.287224     126.136999       0.000000
    342.565381     239.802279     127.229634       0.000000
    345.101849     261.454465     126.493141       0.000000
    353.189176     255.044088     127.628793       0.000000
    344.758749     273.940046     124.564227       0.000000
    345.571584     295.025684     120.927072       0.000000
    332.642163     311.565386     119.319042       0.000000
    336.462371     321.239105     118.465146       0.000000
    348.483961     322.817905     117.126399       0.000000
    346.580361     340.536145     114.457771       0.000000
    356.450070     345.659760     112.945920       0.000000
    347.447660     363.418933     114.896578       0.000000
    336.989093     358.758631     114.985438       0.000000
    337.520087     368.447555     114.881720       0.000000
    346.171111     388.148402     116.940004       0.000000
    332.905724     382.626286     117.450860       0.000000
    338.014952     405.718727     116.723063       0.000000
    313.725943     411.430421     124.939997       0.000000
    332.545969     419.346155     118.868100       0.000000
    340.897561     415.834394     116.681569       0.000000
    328.833021     436.287528     121.666207       0.000000
    358.283807     433.488455     118.308396       0.000000
    341.590135     436.827177     119.903413       0.000000
    333.603660     455.377301     123.559350       0.000000
    342.828107     473.486925     125.451964       0.000000
    349.982859     489.254951     127.808467       0.000000
    340.000000     500.000000     131.056235       0.000000
    350.000000      10.000000     130.881005       0.000000
    357.161073      19.463853     128.464833       0.000000
    349.532990      28.364136     128.026820       0.000000
    356.364021      38.702554     124.831819       0.000000
    347.753495      44.569521     124.326610       0.000000
    354.495920      61.543814     123.537888       0.000000
    351.863963      75.141619     123.814885       0.000000
    348.704895      84.550691     124.027003       0.000000
    361.403651     103.271546     122.715503       0.000000
    357.018215     112.863001     124.207904       0.000000
    346.945845     116.971946     127.688565       0.000000
    355.873522     121.766575     124.863236       0.000000
    339.178392     135.108767     130.841817       0.000000
    340.527410     147.881067     129.915220       0.000000
    337.808922     165.769227     125.621488       0.000000
    349.733263     150.080916     128.216455       0.000000
    345.104243     158.102744     127.538435       0.000000
    352.121115     167.152033     122.734347       0.000000
    350.922937     199.619281     119.871615       0.000000
    344.142250     192.905761     119.404853       0.000000
    338.874121     214.805890     119.133935       0.000000
    358.672883     205.373697     121.738282       0.000000
    342.447583     222.324104     122.934884       0.000000
    354.556603     241.843138     127.269217       0.000000
    364.935446     239.968516     127.824693       0.000000
    359.929870     249.016251     128.378673       0.000000
    353.844021     266.236298     124.907260       0.000000
    367.768250     265.913501     123.489747       0.000000
    352.260330     284.290941     120.019675       0.000000
    328.408249     302.242449     121.606276       0.000000
    342.401239     314.450094     118.542541       0.000000
    365.602922     313.302777     116.751226       0.000000
    353.513725     315.193378     116.900716       0.000000
    350.792626     353.518844     113.335435       0.000000
    358.516699     362.927813     114.269388       0.000000
    349.990399     373.729755     115.348426       0.000000
    341.360338     377.402517     116.405771       0.000000
    353.746882     382.310656     116.468406       0.000000
    338.561058     395.141074     117.073353       0.000000
    360.827001     403.262007     115.646545       0.000000
    349.295916     396.546155     115.645476       0.000000
    350.447019     407.884175     114.886452       0.000000
    346.632097     428.094735     117.646825       0.000000
    350.788351     439.114008     120.854544       0.000000
    352.576394     457.487113     122.571089       0.000000
    341.982955     458.818527     123.247832       0.000000
    350.345537     468.617893     124.101903       0.000000
    338.673132     481.182718     127.738348       0.000000
    364.145984     490.897223     127.871067       0.000000
    350.000000     500.000000     130.201063       0.000000
    360.000000      10.000000     130.012664       0.000000
    365.900822      20.577504     126.622812       0.000000
    366.360326      35.010595     124.585649       0.000000
    357.249230      49.635123     123.325445       0.000000
    373.047789      54.317822     121.722292       0.000000
    363.121776      57.989456     123.268491       0.000000
    361.792812      68.461521     123.587315       0.000000
    371.121410      83.979883     120.577515       0.000000
    360.889997      89.506863     122.936040       0.000000
    370.646805     107.385929     119.132089       0.000000
    374.579110     117.512686     119.222893       0.000000
    359.293286     131.983069     125.954570       0.000000
    336.344697     156.397472     130.090154       0.000000
    328.943370     151.009617     133.902281       0.000000
    358.892498     144.591857     126.384944       0.000000
    363.106528     153.764313     124.351709       0.000000
    354.660655     157.639410     124.530058       0.000000
    357.736991     177.591086     121.878020       0.000000
    359.769773     195.680777     121.141340       0.000000
    368.427210     198.052663     124.271212       0.000000
    366.859502     206.891589     125.463743       0.000000
    349.430207     214.288579     120.843843       0.000000
    351.990401     223.210624     125.323207       0.000000
    376.052223     242.055955     127.745960       0.000000
    369.035696     250.893639     126.403184       0.000000
    361.795762     259.162215     127.066691       0.000000
    375.075308     274.518791     117.642593       0.000000
    362.888986     288.673484     117.278581       0.000000
    349.116151     305.175490     118.576733       0.000000
    339.250908     304.727296     120.848069       0.000000
    359.514797     303.826113     117.348429       0.000000
    365.222514     331.573794     115.148726       0.000000
    356.431842     334.263344     115.087070       0.000000
    374.406121     340.088309     113.875119       0.000000
    365.900112     344.004566     112.911914       0.000000
    363.016857     352.877609     113.041507       0.000000
    359.096968     373.683049     114.275017       0.000000
    363.034418     382.836308     116.494944       0.000000
    370.353837     395.945189     117.749356       0.000000
    362.021685     412.181810     115.178702       0.000000
    370.345716     406.454591     117.485894       0.000000
    352.246967     420.811654     115.240549       0.000000
    368.977021     436.197596     118.635026       0.000000
    361.000106     441.782679     121.201397       0.000000
    360.231655     452.904040     121.310256       0.000000
    357.270640     475.218404     123.846954       0.000000
    358.957034     483.559886     127.119073       0.000000
    349.611675     479.959302     125.491404       0.000000
    372.302112     485.812676     125.718747       0.000000
    360.000000     500.000000     129.184973       0.000000
    370.000000      10.000000     127.363470       0.000000
    374.785030      17.630510     125.004316       0.000000
    358.424312      29.794245     125.832364       0.000000
    364.214368      43.746375     122.755531       0.000000
    374.975176      64.798307     121.431101       0.000000
    361.355398      79.617017     122.811880       0.000000
    378.740440      75.204346     121.042949       0.000000
    395.819188      83.987202     116.630402       0.000000
    367.212601      96.362766     121.220289       0.000000
    349.785610     107.519046     123.638891       0.000000
    378.292408     125.890257     121.371718       0.000000
    364.962411     120.578903     123.703029       0.000000
    368.195233     130.110180     123.443334       0.000000
    389.251375     130.039562     122.195826       0.000000
    350.902799     139.077398     128.553028       0.000000
    367.649898     140.556826     124.012203       0.000000
    372.449063     148.668510     122.864648       0.000000
    365.944919     173.496720     122.377185       0.000000
    365.852846     183.023009     122.963874       0.000000
    374.236351     213.180214     128.140798       0.000000
    359.764809     216.497098     126.260157       0.000000
    367.190197     221.705838     128.258594       0.000000
    358.751745     231.827926     127.862181       0.000000
    369.047170     231.660586     128.123365       0.000000
    378.074055     251.053410     125.528485       0.000000
    376.491865     260.363784     123.218940       0.000000
    385.277114     258.841147     121.765697       0.000000
    356.106537     275.936603     121.187898       0.000000
    367.589651     299.344826     115.056455       0.000000
    354.739448     294.582134     117.757883       0.000000
    373.397598     308.072705     114.592939       0.000000
    389.444799     317.582285     114.659149       0.000000
    358.477289     323.070655     116.581995       0.000000
    384.765530     327.157812     115.028492       0.000000
    374.543418     330.992841     115.570296       0.000000
    372.484514     355.334556     114.038110       0.000000
    368.339417     363.176520     115.605150       0.000000
    368.541609     374.019783     116.707344       0.000000
    360.254750     391.390904     115.942489       0.000000
    378.083727     401.228948     119.164814       0.000000
    381.234777     422.810246     119.641515       0.000000
    370.648639     425.964757     117.549363       0.000000
    360.787084     424.555468     115.809293       0.000000
    370.293831     446.469335     120.665372       0.000000
    379.156218     452.287065     123.249418       0.000000
    359.506372     463.248008     122.954222       0.000000
    369.187865     455.455082     121.238441       0.000000
    368.085140     477.015596     125.239055       0.000000
    381.223235     490.398451     125.543095       0.000000
    370.000000     500.000000     127.131333       0.000000
    380.000000      10.000000     125.751204       0.000000
    385.790903      19.758149     122.830412       0.000000
    372.339957      28.240348     125.264874       0.000000
    382.751116      45.309323     120.803915       0.000000
    393.766762      36.699966     121.068735       0.000000
    383.121450      56.024093     121.051963       0.000000
    369.557658      74.117025     122.482702       0.000000
    384.499245      66.381225     121.027641       0.000000
    380.323612      98.283747     117.753773       0.000000
    384.128510     111.857825     118.521171       0.000000
    396.472834     114.021081     119.554438       0.000000
    388.326852     120.187170     120.819876       0.000000
    381.824655     146.283538     121.904545       0.000000
    381.133785     134.654461     121.328741       0.000000
    373.810579     158.822435     122.104885       0.000000
    391.295619     149.836814     124.268336       0.000000
    361.624369     163.604661     121.468493       0.000000
    374.831313     169.608330     124.408301       0.000000
    378.205593     190.879081     124.996519       0.000000
    382.501257     209.551357     129.021923       0.000000
    384.923053     218.628283     129.290655       0.000000
    396.809868     224.549183     125.346649       0.000000
    376.100578     224.053765     128.968581       0.000000
    387.477124     228.440551     127.828867       0.000000
    379.258498     232.454600     127.716177       0.000000
    385.526556     267.788126     115.962903       0.000000
    378.617877     282.857628     113.944338       0.000000
    365.434746     276.789448     118.976214       0.000000
    371.658548     288.673574     114.567474       0.000000
    379.948571     296.294554     113.986438       0.000000
    371.726518     320.749118     116.184200       0.000000
    392.284338     308.045272     114.026061       0.000000
    384.346435     337.100203     114.235482       0.000000
    380.906350     348.686329     115.008041       0.000000
    389.654734     353.058078     119.260607       0.000000
    380.005560     359.869295     116.697829       0.000000
    377.850089     368.884156     118.296472       0.000000
    394.130101     375.947650     125.594159       0.000000
    380.321862     378.761419     122.977745       0.000000
    373.031072     383.043623     118.825556       0.000000
    370.501692     415.609550     115.829956       0.000000
    387.464658     430.664852     123.006630       0.000000
    381.831059     440.103610     122.269280       0.000000
    377.490794     432.340396     119.728776       0.000000
    390.123361     445.771899     123.273375       0.000000
    377.231397     461.765677     123.968494       0.000000
    368.453940     465.902540     122.405072       0.000000
    380.902528     481.617291     123.332311       0.000000
    389.048153     475.747272     123.761117       0.000000
    380.000000     500.000000     125.214216       0.000000
    390.000000      10.000000     124.690749       0.000000
    395.319992      18.128408     122.801869       0.000000
    374.053309      43.309339     122.088628       0.000000
    384.508826      36.288384     120.983267       0.000000
    402.415935      45.111669     122.511166       0.000000
    392.724489      48.442999     120.806437       0.000000
    390.814110      72.670691     118.805725       0.000000
    399.695750      75.791200     117.869192       0.000000
    386.868274      80.852643     117.892080       0.000000
    380.171133      88.232109     118.517471       0.000000
    390.406484     102.968178     118.477103       0.000000
    407.549047     115.609267     120.061204       0.000000
    401.047865     131.253409     122.159290       0.000000
    389.317359     139.167381     123.879186       0.000000
    383.308089     156.987677     122.630422       0.000000
    390.761523     160.519952     126.645247       0.000000
    384.836512     168.335699     126.540085       0.000000
    386.635419     177.266322     126.285996       0.000000
    377.308579     200.860264     127.540147       0.000000
    385.802661     197.703427     128.376049       0.000000
    390.859279     205.225278     129.501998       0.000000
    393.589184     214.650887     128.316316       0.000000
    408.953812     227.885410     123.320579       0.000000
    404.571682     237.628029     122.543353       0.000000
    393.963298     237.812092     123.646796       0.000000
    385.513338     240.355088     125.502557       0.000000
    395.356800     254.904140     121.454145       0.000000
    388.602537     291.779960     113.128540       0.000000
    394.892178     298.456066     113.740654       0.000000
    379.964191     314.423157     115.741634       0.000000
    382.085301     305.567044     114.187964       0.000000
    401.530179     304.668120     114.273673       0.000000
    392.335340     332.995426     117.175152       0.000000
    391.847680     342.186842     115.960570       0.000000
    397.912668     349.466777     121.200198       0.000000
    389.516040     363.589825     120.939007       0.000000
    386.944845     372.321160     121.493812       0.000000
    400.076998     388.814880     126.756105       0.000000
    390.120837     386.013756     124.557492       0.000000
    380.405342     388.633343     121.821476       0.000000
    388.338226     394.917611     123.745164       0.000000
    380.321550     412.953829     119.444181       0.000000
    418.103293     417.596989     129.438158       0.000000
    395.516952     437.055680     124.636294       0.000000
    390.654108     456.623589     124.564723       0.000000
    385.419522     465.527894     124.531126       0.000000
    378.828868     472.782911     123.508870       0.000000
    395.106371     482.534433     125.484180       0.000000
    390.379889     490.593194     124.674071       0.000000
    390.000000     500.000000     124.759146       0.000000
    400.000000      10.000000     124.040354       0.000000
    404.521900      20.199143     124.135433       0.000000
    381.565048      27.906723     122.505982       0.000000
    392.657526      27.701362     122.797744       0.000000
    411.312841      48.685727     122.906809       0.000000
    401.965033      54.610675     121.434277       0.000000
    395.189054      62.891862     119.724711       0.000000
    405.757775      83.440569     118.440705       0.000000
    400.543473     104.385136     119.827980       0.000000
    389.908551      91.741595     117.328808       0.000000
    398.270077      95.479691     119.319674       0.000000
    396.891906     123.550257     120.041846       0.000000
    400.696209     141.853412     125.296532       0.000000
    415.105909     143.527802     125.920083       0.000000
    408.623913     137.125401     125.120220       0.000000
    410.024757     150.934235     126.810493       0.000000
    394.110452     169.506644     126.721529       0.000000
    400.171799     183.024706     126.298279       0.000000
    375.134625     178.873956     124.147577       0.000000
    387.912561     186.136126     125.017535       0.000000
    395.477729     193.786671     126.904953       0.000000
    401.390646     207.764870     127.510144       0.000000
    416.980805     234.898844     122.517567       0.000000
    416.630412     222.477139     123.011492       0.000000
    401.015306     246.076642     121.858637       0.000000
    387.130047     249.886099     122.930372       0.000000
    404.855052     254.313078     120.115407       0.000000
    387.272511     276.799932     115.191235       0.000000
    397.879267     286.644369     112.885460       0.000000
    403.105900     294.331598     114.340562       0.000000
    411.438606     309.468790     116.303446       0.000000
    399.124205     316.189819     115.312553       0.000000
    397.038756     325.012595     115.503205       0.000000
    410.536548     341.523691     122.325075       0.000000
    401.598069     340.543308     119.930877       0.000000
    400.969546     357.460118     124.591651       0.000000
    404.510315     375.181264     131.574597       0.000000
    398.410057     366.060865     126.242438       0.000000
    420.851151     396.839813     131.705456       0.000000
    409.960606     396.790729     128.558817       0.000000
    397.545661     397.614656     125.677491       0.000000
    386.285028     406.273884     121.096918       0.000000
    390.997046     415.855784     123.042747       0.000000
    394.419603     424.375754     124.272946       0.000000
    402.400224     442.924590     126.445612       0.000000
    407.830513     472.638275     127.822235       0.000000
    398.936342     452.136965     126.144860       0.000000
    398.701071     474.096008     125.645671       0.000000
    402.547917     491.343986     124.797964       0.000000
    400.000000     500.000000     124.177088       0.000000
    410.000000      10.000000     124.205101       0.000000
    411.003896      28.680909     123.270384       0.000000
    401.622674      30.356713     123.602832       0.000000
    408.888641      38.081189     122.227012       0.000000
    426.162467      64.659507     121.968535       0.000000
    410.482410      57.991055     122.068262       0.000000
    404.676995      65.163041     121.090103       0.000000
    407.278899      93.331338     120.174127       0.000000
    414.733843      86.093221     119.125571       0.000000
    418.244635      94.401938     120.156363       0.000000
    413.106129     105.811665     119.194164       0.000000
    411.274492     123.966404     121.371022       0.000000
    428.742841     134.795443     126.435645       0.000000
    425.828559     145.807632     127.437622       0.000000
    401.498906     154.704506     126.008195       0.000000
    419.999557     164.662113     130.261858       0.000000
    411.425708     161.683532     129.272722       0.000000
    403.002873     174.273373     127.984566       0.000000
    404.233881     196.744133     126.870782       0.000000
    415.118577     196.736260     126.862355       0.000000
    411.954373     205.697664     126.178556       0.000000
    402.083366     217.100187     126.533615       0.000000
    410.983463     215.572146     125.444134       0.000000
    412.963895     245.018345     121.252892       0.000000
    413.770546     257.386364     118.788699       0.000000
    415.764795     267.207568     118.034827       0.000000
    406.817017     264.224845     117.026338       0.000000
    394.245173     263.966398     117.550890       0.000000
    401.540128     272.383503     115.237322       0.000000
    420.887155     302.226063     118.642379       0.000000
    420.195990     311.841916     119.140172       0.000000
    404.263635     330.263441     119.346292       0.000000
    423.269889     333.614611     123.488449       0.000000
    417.172605     354.530874     126.747663       0.000000
    408.111321     350.667459     123.985658       0.000000
    416.004920     366.557382     130.883873       0.000000
    408.434085     362.164673     127.809954       0.000000
    408.200472     385.663902     130.728736       0.000000
    428.324884     391.318045     132.472625       0.000000
    412.122592     410.697717     127.303152       0.000000
    404.965133     404.094157     126.264511       0.000000
    396.177761     406.707074     124.710433       0.000000
    402.349788     415.555019     124.216046       0.000000
    409.654603     437.754707     129.026635       0.000000
    403.967834     429.563499     126.754989       0.000000
    408.611748     450.918312     128.053934       0.000000
    418.120559     472.607696     129.382677       0.000000
    407.545702     482.765231     126.393541       0.000000
    412.122004     490.546226     125.431613       0.000000
    410.000000     500.000000     124.734990       0.000000
    420.000000      10.000000     124.742718       0.000000
    415.750735      19.841613     122.819159       0.000000
    421.024735      27.522775     123.459808       0.000000
    418.730826      54.174378     124.246810       0.000000
    426.475651      47.290819     123.720676       0.000000
    433.021455      54.118596     123.948356       0.000000
    417.556302      66.908443     120.514877       0.000000
    410.646738      73.609228     119.350662       0.000000
    428.813233      83.060754     120.526023       0.000000
    430.752438      92.976560     121.550995       0.000000
    423.062457     104.027349     119.787183       0.000000
    417.613587     116.239437     120.563878       0.000000
    417.324572     134.519688     124.790400       0.000000
    433.583344     122.411121     126.712182       0.000000
