    152.336704     274.213117     117.552940       0.000000
    159.479894     266.682711     119.947516       0.000000
    174.422668     279.101906     128.397437       0.000000
    168.005853     285.550083     127.345974       0.000000
    176.214449     289.158569     128.494419       0.000000
    179.030312     302.216177     125.906831       0.000000
    165.076698     317.630781     121.262014       0.000000
    168.045633     338.772019     126.320010       0.000000
    173.592709     348.689000     132.108714       0.000000
    167.731215     362.610189     135.061258       0.000000
    174.716813     369.009847     135.247390       0.000000
    164.953412     374.667822     139.642252       0.000000
    165.355937     383.746642     137.839026       0.000000
    162.171628     392.658639     134.959839       0.000000
    156.929905     400.395848     129.603732       0.000000
    158.216131     409.833911     125.156204       0.000000
    177.605192     405.587325     129.647874       0.000000
    158.397048     418.492472     122.482724       0.000000
    158.580334     438.881563     117.554000       0.000000
    179.440861     460.343104     120.292667       0.000000
    152.575677     468.505413     115.463526       0.000000
    192.619455     456.679189     119.464457       0.000000
    180.005210     481.427995     119.493125       0.000000
    168.416343     490.793055     122.021704       0.000000
    170.000000     500.000000     123.240845       0.000000
    180.000000      10.000000     124.697161       0.000000
    167.650466      19.617170     127.866123       0.000000
    176.623925      19.460188     126.212146       0.000000
    183.236705      26.322531     127.001156       0.000000
    184.456672      45.784853     124.301097       0.000000
    178.031431      61.190154     124.262111       0.000000
    180.135815      86.646528     126.645188       0.000000
    183.125223      95.861350     128.186415       0.000000
    169.781443     107.719722     131.075935       0.000000
    178.587990     111.727929     133.363971       0.000000
    192.009708     113.369563     130.848844       0.000000
    190.169194     125.847338     133.140701       0.000000
    181.229406     128.446205     132.533761       0.000000
    180.431677     143.552572     134.561718       0.000000
    177.342099     153.203496     133.331893       0.000000
    167.125476     163.488633     133.094953       0.000000
    176.276390     184.193596     129.279334       0.000000
    182.317374     191.753728     127.746795       0.000000
    174.523278     212.552403     122.891826       0.000000
    173.441744     221.050510     119.262483       0.000000
    185.621080     214.386699     120.859478       0.000000
    195.332256     209.607639     120.732961       0.000000
    196.542540     231.515908     116.144688       0.000000
    181.686859     241.406177     118.262336       0.000000
    168.957400     262.488612     123.204295       0.000000
    158.199252     258.091286     117.096887       0.000000
    181.363980     271.515772     127.946207       0.000000
    186.259066     285.267345     130.081973       0.000000
    185.777603     296.370822     128.145371       0.000000
    189.944741     307.825148     125.748534       0.000000
    183.647467     314.028583     123.922911       0.000000
    173.853064     319.842542     121.030217       0.000000
    173.173319     329.170200     121.603761       0.000000
    179.200379     343.531248     127.115218       0.000000
    183.182953     351.227269     129.595892       0.000000
    184.226772     365.345739     131.021029       0.000000
    186.627566     374.081587     131.089676       0.000000
    173.054010     377.894525     137.024857       0.000000
    168.483118     402.910903     131.665618       0.000000
    172.253653     394.326044     134.255180       0.000000
    191.377354     391.707627     129.137449       0.000000
    189.067284     402.090565     128.218972       0.000000
    168.418699     421.319602     122.657736       0.000000
    168.740064     430.393660     119.954126       0.000000
    164.489047     463.180388     117.352005       0.000000
    187.377845     447.496459     119.510129       0.000000
    191.198550     469.736642     120.279898       0.000000
    181.074370     471.569273     119.882041       0.000000
    178.435611     490.167369     122.161233       0.000000
    180.000000     500.000000     123.052675       0.000000
    190.000000      10.000000     124.480725       0.000000
    190.334995      20.029976     124.607665       0.000000
    200.761193      34.763227     122.028128       0.000000
    193.860316      50.661798     120.711222       0.000000
    189.888026      68.265811     123.616037       0.000000
    187.874762      58.226947     122.509195       0.000000
    186.631215      77.625463     125.602199       0.000000
    190.281819      88.180337     125.310343       0.000000
    196.231667      95.830261     127.048639       0.000000
    173.204704      99.221771     129.291181       0.000000
    184.772856     104.574357     130.153299       0.000000
    199.849082     131.003658     132.915553       0.000000
    187.586630     137.725448     134.359072       0.000000
    200.198166     158.074541     130.112235       0.000000
    191.239171     173.832596     127.364653       0.000000
    199.958216     176.250611     123.801871       0.000000
    201.743936     187.431079     120.520739       0.000000
    184.577956     181.286868     127.369642       0.000000
    193.439990     183.660391     124.606115       0.000000
    194.204760     194.158010     122.643013       0.000000
    179.602276     204.743650     123.842364       0.000000
    202.688077     196.492525     118.958530       0.000000
    200.593545     217.318916     116.481243       0.000000
    184.759194     250.064793     119.439679       0.000000
    196.493683     248.019667     120.184811       0.000000
    179.955636     263.014877     125.086407       0.000000
    206.570810     269.256816     131.395848       0.000000
    199.215032     276.838364     131.020672       0.000000
    206.155901     293.233369     130.228480       0.000000
    194.869035     288.537263     131.170338       0.000000
    183.655613     322.754872     121.329696       0.000000
    191.786698     334.493025     121.886299       0.000000
    181.349936     334.355750     123.210588       0.000000
    190.221259     344.117934     124.683418       0.000000
    198.090809     349.789754     126.163016       0.000000
    177.730501     358.437562     131.561316       0.000000
    193.640722     366.386758     129.453349       0.000000
    190.251662     382.649362     129.678974       0.000000
    180.459859     383.237113     134.259953       0.000000
    180.873240     395.799443     131.050275       0.000000
    195.616308     408.837774     127.045397       0.000000
    179.452426     418.297063     125.675429       0.000000
    186.657605     410.662973     126.898809       0.000000
    180.581635     428.503066     121.922269       0.000000
    175.929105     446.319323     118.997112       0.000000
    198.189402     449.244801     118.233352       0.000000
    197.701174     477.159200     121.206075       0.000000
    188.572813     478.744364     121.081634       0.000000
    189.839849     490.267596     124.141169       0.000000
    190.000000     500.000000     124.159607       0.000000
    200.000000      10.000000     125.357028       0.000000
    205.123159      21.634912     124.568273       0.000000
    192.133792      41.027564     123.048750       0.000000
    195.247453      27.647927     124.385063       0.000000
    200.835372      58.639167     120.235876       0.000000
    179.895991      70.199559     125.415114       0.000000
    196.352745      78.471152     122.642631       0.000000
    209.561105      89.786276     123.819843       0.000000
    199.327473      87.017888     124.398831       0.000000
    205.002048     100.169460     126.803802       0.000000
    198.035482     106.502344     128.663606       0.000000
    209.546802     125.725441     130.274628       0.000000
    193.816574     144.447055     133.385278       0.000000
    187.693714     152.136809     133.171069       0.000000
    201.656331     148.831693     132.518577       0.000000
    209.460844     162.997327     126.483053       0.000000
    178.991778     162.706406     132.894742       0.000000
    221.548913     172.318358     119.018510       0.000000
    220.816486     194.483418     112.737635       0.000000
    208.829418     181.181401     119.004529       0.000000
    214.081496     200.660362     113.783478       0.000000
    189.013558     201.579098     123.999453       0.000000
    203.925803     207.615272     117.114040       0.000000
    185.596675     232.288387     118.472005       0.000000
    204.045952     242.258116     119.767973       0.000000
    191.122458     240.080524     118.355517       0.000000
    174.761898     249.491405     119.437445       0.000000
    189.444136     275.654583     128.890533       0.000000
    194.396071     265.247944     126.307384       0.000000
    194.882147     298.435926     129.063609       0.000000
    193.211966     320.851189     122.482580       0.000000
    199.974356     330.166982     121.327076       0.000000
    213.637586     329.826319     120.593959       0.000000
    198.997946     340.257788     124.293408       0.000000
    206.238389     346.859855     123.499461       0.000000
    189.991981     357.777368     128.715645       0.000000
    207.204064     379.464453     127.067467       0.000000
    200.300656     385.526688     126.876297       0.000000
    198.754385     374.420593     127.664721       0.000000
    206.697080     403.946448     125.899885       0.000000
    198.745551     398.771506     126.311486       0.000000
    197.896255     417.701420     123.790257       0.000000
    195.492175     428.251145     119.836355       0.000000
    189.041894     419.230468     122.959970       0.000000
    186.254483     437.284518     119.747598       0.000000
    201.306724     463.244363     119.303662       0.000000
    206.047142     472.604466     119.827554       0.000000
    204.833349     482.600259     122.954590       0.000000
    200.340667     490.406172     124.158138       0.000000
    200.000000     500.000000     124.409411       0.000000
    210.000000      10.000000     124.818197       0.000000
    214.143459      19.697424     123.767502       0.000000
    220.628164      35.902061     117.256395       0.000000
    208.578529      29.477152     121.465759       0.000000
    208.413548      52.932841     120.271199       0.000000
    199.792871      67.463062     122.498979       0.000000
    222.691173      62.537021     117.573702       0.000000
    205.613349      75.265923     121.578733       0.000000
    229.915400      85.940409     118.911840       0.000000
    214.372537      97.212192     125.547782       0.000000
    211.668943     106.119837     127.984220       0.000000
    204.329417     114.073634     130.377360       0.000000
    197.573407     120.470401     132.953744       0.000000
    203.537983     139.602110     132.010089       0.000000
    211.087740     143.936129     128.826613       0.000000
    188.608722     162.765148     131.768768       0.000000
    208.892027     173.196463     123.898640       0.000000
    217.784809     165.105121     122.886689       0.000000
    229.506952     191.634948     111.362510       0.000000
    210.505634     191.624514     116.999686       0.000000
    226.684052     212.341324     111.024274       0.000000
    221.564918     204.796352     110.320565       0.000000
    210.785840     219.007113     115.266758       0.000000
    204.300682     225.922080     116.165057       0.000000
    215.292374     247.254898     121.949891       0.000000
    207.048348     250.890007     121.946896       0.000000
    189.165449     257.210278     123.286363       0.000000
    213.456945     278.748218     130.623956       0.000000
    215.530475     289.902158     130.810152       0.000000
    204.056151     303.274169     127.633541       0.000000
    198.423047     311.013867     124.827348       0.000000
    202.493041     319.347776     122.607656       0.000000
    225.098005     317.447467     122.489959       0.000000
    208.090221     338.189278     121.245599       0.000000
    215.644158     350.280190     121.829476       0.000000
    199.982922     359.842645     127.958896       0.000000
    216.698608     381.653148     126.105295       0.000000
    208.666546     393.113251     126.046709       0.000000
    231.664756     392.895459     124.973836       0.000000
    218.718925     394.988729     127.051458       0.000000
    206.062199     413.593156     124.995042       0.000000
    217.404773     418.412409     122.401453       0.000000
    194.653737     440.553965     120.330594       0.000000
    206.301722     443.633686     117.971866       0.000000
    216.019309     447.414747     116.324854       0.000000
    205.632999     454.325940     118.244176       0.000000
    212.557790     461.222405     118.305307       0.000000
    216.162051     481.443474     123.207943       0.000000
    209.329178     490.644348     125.123639       0.000000
    210.000000     500.000000     123.995259       0.000000
    220.000000      10.000000     123.862271       0.000000
    224.582480      19.325987     122.009157       0.000000
    217.654628      27.497774     120.347543       0.000000
    210.447850      38.530666     119.534719       0.000000
    201.589402      44.478940     120.990801       0.000000
    208.700153      64.814588     121.003559       0.000000
    233.335904      60.418208     115.690199       0.000000
    216.802945      70.252557     119.260770       0.000000
    214.465151      80.607723     121.227885       0.000000
    220.853880      88.425981     122.115940       0.000000
    221.621278     110.602885     128.584774       0.000000
    218.122580     118.869253     129.825283       0.000000
    212.138905     135.021592     130.254145       0.000000
    222.199183     133.757070     128.807799       0.000000
    226.279796     141.927691     127.039136       0.000000
    210.363202     153.326270     128.442521       0.000000
    198.770919     167.908311     127.213518       0.000000
    218.474023     182.420571     116.681417       0.000000
    227.380153     182.600627     114.701416       0.000000
    232.473516     203.347099     110.301488       0.000000
    221.996175     220.270549     113.469229       0.000000
    213.772398     210.358985     113.777490       0.000000
    216.421041     228.052755     114.565927       0.000000
    211.142040     236.296861     116.663745       0.000000
    221.148423     257.787744     125.035988       0.000000
    231.435003     261.864951     126.465092       0.000000
    201.664005     259.929564     127.321949       0.000000
    205.470141     284.113635     131.454291       0.000000
    222.810893     279.375518     130.033352       0.000000
    209.082855     310.814721     124.628953       0.000000
    214.466711     299.538978     127.610878       0.000000
    234.635329     322.222086     121.568040       0.000000
    213.443513     319.543404     122.522336       0.000000
    224.991474     327.137680     121.164361       0.000000
    217.858477     340.072693     119.945172       0.000000
    208.766963     361.224955     125.123028       0.000000
    206.658235     369.976389     125.193569       0.000000
    224.931350     386.733100     126.172042       0.000000
    227.011257     401.931774     124.081021       0.000000
    217.552449     404.569147     125.760889       0.000000
    206.340687     424.758672     121.719501       0.000000
    202.794558     434.922424     120.650259       0.000000
    218.737156     430.156457     118.971602       0.000000
    222.906450     438.602681     117.461906       0.000000
    212.374509     436.542237     117.992645       0.000000
    222.343408     458.209501     118.387565       0.000000
    214.924700     470.029013     119.372961       0.000000
    225.054898     477.535619     121.483448       0.000000
    218.609691     490.519342     123.559936       0.000000
    220.000000     500.000000     123.803881       0.000000
    230.000000      10.000000     122.768977       0.000000
    233.733453      18.517999     121.114732       0.000000
    231.435822      37.376505     116.846289       0.000000
    221.408708      45.397897     116.719089       0.000000
    226.875179      53.722957     115.101000       0.000000
    217.568777      54.823435     118.804413       0.000000
    242.782818      64.379866     115.097952       0.000000
    223.875449      75.827193     118.069520       0.000000
    234.710647      71.715803     116.791230       0.000000
    223.550745     102.197708     125.385757       0.000000
    233.221443     103.090658     123.965963       0.000000
    234.176298     124.631686     129.574946       0.000000
    225.195849     125.228830     129.883857       0.000000
    234.262217     133.912799     128.736330       0.000000
    219.131934     152.012879     124.885287       0.000000
    226.900126     161.970258     120.947133       0.000000
    229.952042     173.479081     115.910574       0.000000
    247.547689     165.647137     118.700732       0.000000
    249.873384     189.714641     112.117948       0.000000
    240.413648     183.933451     112.004918       0.000000
    240.710566     207.480387     111.430215       0.000000
    241.912731     222.983881     112.522521       0.000000
    223.518288     244.323798     119.343136       0.000000
    227.994733     252.087387     122.959353       0.000000
    238.887283     252.510502     121.244064       0.000000
    242.105968     262.417849     125.713678       0.000000
    231.828717     270.950613     128.405388       0.000000
    211.951204     257.833367     125.306912       0.000000
    236.317882     290.940616     129.150816       0.000000
    224.391787     301.946962     127.802018       0.000000
    219.063355     309.572191     124.279216       0.000000
    250.695828     332.359891     118.278249       0.000000
    234.670218     332.752236     119.751021       0.000000
    226.672132     337.411380     119.625908       0.000000
    219.605891     364.342797     121.886497       0.000000
    241.915758     359.434745     122.798448       0.000000
    232.956944     361.340013     122.426018       0.000000
    219.757068     373.015980     124.601736       0.000000
    228.892560     378.436204     125.187743       0.000000
    242.111761     393.905404     124.437943       0.000000
    237.475415     414.855430     123.472629       0.000000
    246.331615     419.180625     124.170070       0.000000
    228.406515     424.057772     121.224062       0.000000
    232.566366     433.409823     118.481761       0.000000
    226.826888     447.435861     117.295719       0.000000
    241.669240     462.409417     119.467671       0.000000
    226.210929     467.445378     120.280061       0.000000
    233.607566     483.681259     120.628984       0.000000
    228.314017     490.875519     122.227685       0.000000
    230.000000     500.000000     122.293743       0.000000
    240.000000      10.000000     122.401356       0.000000
    232.842596      27.427412     118.871366       0.000000
    233.398254      46.683783     115.331485       0.000000
    245.954417      47.785750     115.631485       0.000000
    240.204908      40.639255     116.215616       0.000000
    240.552666      55.038046     114.627382       0.000000
    257.043479      64.138828     116.624597       0.000000
    247.251325      73.034923     116.664226       0.000000
    247.748835      88.220096     117.157928       0.000000
    238.466417      83.051358     117.858144       0.000000
    228.955782      94.406620     122.232258       0.000000
    230.783093     115.204073     129.602097       0.000000
    233.734574     146.998219     125.698668       0.000000
    256.748528     140.074999     126.171147       0.000000
    243.933026     145.837071     122.901422       0.000000
    233.760505     155.610054     122.603073       0.000000
    241.663460     173.401110     114.984617       0.000000
    249.915333     177.721785     114.296715       0.000000
    265.526675     181.135001     115.537555       0.000000
    241.768366     194.521489     111.410231       0.000000
    235.578960     215.870815     111.583425       0.000000
    227.821912     227.219422     113.133041       0.000000
    224.080500     236.016457     115.627542       0.000000
    235.169213     242.315906     115.356744       0.000000
    245.233474     246.408332     119.265078       0.000000
    248.843260     269.227218     128.454191       0.000000
    242.092882     275.869944     129.105196       0.000000
    221.052970     268.286218     128.853783       0.000000
    226.577394     292.459818     129.813519       0.000000
    230.970672     309.520377     124.613089       0.000000
    237.775734     300.480521     126.965852       0.000000
    240.661380     314.805467     122.103163       0.000000
    234.641344     343.276569     119.228534       0.000000
    224.818169     346.900049     119.911095       0.000000
    224.701392     356.140138     121.949139       0.000000
    254.370127     367.007190     127.682837       0.000000
    263.775424     361.459175     126.955065       0.000000
    227.782335     369.049920     122.807355       0.000000
    237.151964     382.117992     124.803308       0.000000
    225.703561     412.016782     123.828533       0.000000
    238.653377     403.622625     123.897906       0.000000
    253.146128     414.747147     128.915017       0.000000
    242.225864     428.080311     121.100364       0.000000
    235.456886     443.993440     117.871616       0.000000
    233.892213     457.560458     118.600398       0.000000
    242.904614     449.713017     118.070948       0.000000
    236.845514     470.049569     121.214031       0.000000
    242.453506     480.984076     120.956505       0.000000
    241.979649     490.535933     120.482507       0.000000
    240.000000     500.000000     121.726082       0.000000
    250.000000      10.000000     121.876695       0.000000
    245.760818      21.219922     120.502973       0.000000
    257.608520      31.094054     121.155242       0.000000
    246.316361      33.105329     117.893394       0.000000
    260.402722      72.787238     117.522907       0.000000
    250.284129      57.832907     115.980759       0.000000
    265.741528      80.718879     119.459098       0.000000
    254.258087      96.097078     121.015256       0.000000
    263.629950      97.017201     124.859399       0.000000
    238.922478      92.945056     119.984814       0.000000
    241.226966     108.825022     127.994859       0.000000
    244.085185     137.511340     126.454941       0.000000
    244.422756     128.746947     129.076585       0.000000
    265.802563     136.102553     129.946034       0.000000
    256.660641     148.884360     123.758615       0.000000
    243.543427     156.524010     121.116602       0.000000
    235.811186     165.163328     118.435394       0.000000
    258.712949     159.770361     119.930318       0.000000
    256.899331     183.727315     113.551811       0.000000
    261.232148     195.263471     112.887605       0.000000
    251.169542     204.437827     113.445866       0.000000
    249.321751     213.347714     113.931672       0.000000
    236.696358     230.761782     113.084907       0.000000
    246.229549     235.541762     114.907330       0.000000
    251.934783     258.834759     124.944253       0.000000
    257.758598     266.630860     127.558170       0.000000
    245.783646     284.621182     127.458596       0.000000
    231.632939     283.234981     130.190009       0.000000
    246.069181     293.708285     126.860696       0.000000
    248.693989     304.283894     124.739711       0.000000
    258.285875     301.252496     126.722107       0.000000
    253.064957     312.810457     121.577454       0.000000
    260.246012     330.485440     119.447019       0.000000
    242.159393     338.129806     118.395054       0.000000
    233.775603     352.283791     121.833344       0.000000
    250.654331     357.399900     123.789588       0.000000
    263.978159     373.984639     130.455909       0.000000
    245.818235     371.136862     126.157828       0.000000
    258.798918     390.152106     129.050748       0.000000
    246.594937     409.197328     125.297560       0.000000
    256.379168     404.295325     128.132481       0.000000
    254.651391     424.397541     125.967918       0.000000
    244.140053     440.363503     119.595218       0.000000
    254.067606     444.810718     120.429139       0.000000
    253.583113     456.514776     118.933235       0.000000
    253.902211     465.891991     119.579509       0.000000
    245.785061     471.383251     120.612437       0.000000
    256.923969     480.956790     121.656399       0.000000
    250.837045     488.914997     120.785726       0.000000
    250.000000     500.000000     121.237236       0.000000
    260.000000      10.000000     122.441854       0.000000
    256.347242      22.155038     121.672694       0.000000
    253.644957      39.345442     118.764511       0.000000
    257.092486      51.537743     116.895335       0.000000
    264.234976      58.987716     118.506820       0.000000
    268.711016      68.060681     119.266073       0.000000
    255.681744      81.799571     117.978863       0.000000
    262.046815      89.030292     120.504770       0.000000
    252.655660     106.304248     127.803551       0.000000
    243.861653     100.939697     123.612961       0.000000
    251.643412     117.724674     130.693345       0.000000
    260.728601     113.680698     131.020579       0.000000
    242.547140     119.226946     129.904221       0.000000
    263.469026     125.202164     131.376013       0.000000
    265.483877     155.504227     124.384965       0.000000
    256.032068     171.675181     117.287380       0.000000
    264.038719     167.719143     118.885993       0.000000
    283.213393     180.365156     119.283325       0.000000
    273.956220     184.963577     116.564526       0.000000
    261.891436     205.106046     113.957036       0.000000
    259.263646     223.204581     114.862403       0.000000
    260.944573     214.334549     114.495073       0.000000
    255.657987     236.713766     115.407585       0.000000
    264.010281     241.570292     117.660335       0.000000
    275.445182     255.393987     125.722624       0.000000
    255.390710     245.860210     118.878476       0.000000
    263.370796     253.836474     122.504055       0.000000
    254.404363     289.941921     127.414330       0.000000
    264.743250     284.680470     126.643200       0.000000
    266.801644     294.434574     126.569818       0.000000
    262.837687     309.229979     123.716483       0.000000
    243.347358     324.511875     118.834617       0.000000
    267.188590     321.326429     119.648806       0.000000
    254.632282     341.168459     119.988355       0.000000
    246.532046     348.433713     120.141603       0.000000
    257.165018     349.701050     121.566088       0.000000
    258.368161     381.039624     129.538140       0.000000
    236.951353     371.353790     123.092944       0.000000
    267.354010     382.676790     132.335966       0.000000
    248.023015     381.102181     126.885334       0.000000
    251.220987     395.062320     126.239482       0.000000
    261.535463     419.427601     129.940428       0.000000
    252.232461     434.779771     122.042958       0.000000
    261.563023     439.200595     125.038236       0.000000
    262.086838     449.447735     122.565092       0.000000
    262.712294     459.907012     121.781499       0.000000
    262.578348     470.165426     121.437373       0.000000
    269.952038     478.714874     123.981391       0.000000
    259.713112     489.735317     122.601083       0.000000
    260.000000     500.000000     122.249018       0.000000
    270.000000      10.000000     122.811751       0.000000
    273.410137      21.416297     123.542753       0.000000
    264.525788      18.071398     121.772755       0.000000
    266.695855      27.591716     122.257853       0.000000
    262.684724      39.078199     120.719819       0.000000
    271.011214      48.669291     121.352027       0.000000
    274.779974      61.669963     121.419668       0.000000
    274.631417      75.239266     121.052360       0.000000
    272.426900      93.992391     125.899547       0.000000
    282.955837     100.264047     131.045222       0.000000
    273.675095     126.594064     132.183159       0.000000
    276.674870     137.521402     132.035027       0.000000
    282.012144     129.901019     134.239987       0.000000
    253.836489     126.880133     130.303232       0.000000
    291.100755     135.190182     137.140633       0.000000
    272.482885     164.687240     123.300160       0.000000
    281.201234     166.396859     125.167118       0.000000
    282.515594     201.783222     114.603963       0.000000
    272.387102     202.136242     113.004851       0.000000
    270.360090     192.989226     113.706366       0.000000
    269.551825     211.361475     114.202806       0.000000
    250.254937     227.017669     113.603548       0.000000
    272.371412     223.497029     115.034316       0.000000
    264.022480     231.760172     115.678214       0.000000
    284.538970     258.031092     126.161564       0.000000
    268.094602     265.071131     125.891442       0.000000
    271.369790     246.008496     121.155930       0.000000
    253.246436     279.462790     127.529930       0.000000
    284.137260     300.396227     124.793818       0.000000
    274.453524     299.382242     125.105857       0.000000
    291.337973     308.201479     122.012557       0.000000
    280.871037     310.485267     121.833303       0.000000
    256.191716     321.516719     119.079167       0.000000
    266.485148     348.743487     122.331022       0.000000
    272.601425     356.333644     124.213306       0.000000
    272.121947     365.233188     127.566795       0.000000
    273.663745     373.956850     130.841102       0.000000
    276.451180     383.052353     132.489959       0.000000
    277.712702     393.326000     132.996031       0.000000
    268.234271     392.117495     131.732465       0.000000
    264.267651     400.251288     130.587805       0.000000
    265.356017     409.437054     132.277027       0.000000
    270.840581     421.338113     132.391653       0.000000
    262.839829     429.273587     126.610533       0.000000
    272.766673     434.391129     129.457924       0.000000
    269.566880     445.237063     125.277039       0.000000
    271.231710     457.975165     124.423876       0.000000
    280.336964     479.011301     125.545172       0.000000
    269.400484     488.516721     123.759648       0.000000
    270.000000     500.000000     124.007996       0.000000
    280.000000      10.000000     125.999015       0.000000
    285.438624      20.313075     124.721245       0.000000
    275.254159      30.853661     123.683456       0.000000
    272.316675      39.567725     122.460867       0.000000
    280.669265      49.311639     123.422570       0.000000
    284.676472      58.924839     123.611781       0.000000
    283.923789      69.139891     124.594121       0.000000
    281.924369      78.503286     125.615214       0.000000
    272.993696      84.834896     122.851382       0.000000
    289.034512      93.027403     132.662731       0.000000
    266.851662     105.009701     129.084481       0.000000
    270.043671     116.576721     131.571605       0.000000
    288.503545     150.886891     132.041425       0.000000
    268.518946     145.891127     128.207506       0.000000
    284.601271     141.514965     134.053132       0.000000
    278.111775     148.712043     129.996203       0.000000
    271.139941     174.519242     118.389715       0.000000
    287.625206     160.519219     128.946440       0.000000
    287.672850     215.711772     113.992675       0.000000
    278.538095     210.217554     114.344270       0.000000
    291.444159     226.523874     114.839464       0.000000
    281.690544     224.975521     114.473600       0.000000
    284.056473     234.584950     117.234056       0.000000
    274.683352     233.798036     116.213124       0.000000
    280.172770     245.052006     122.920125       0.000000
    287.939286     271.026755     126.082469       0.000000
    263.309104     274.640743     126.608153       0.000000
    273.451731     274.893806     127.718574       0.000000
    274.344896     288.770086     125.890745       0.000000
    283.678238     290.097775     124.750189       0.000000
    271.884494     309.739295     123.624136       0.000000
    270.385071     330.838645     118.653459       0.000000
    279.692369     330.306575     118.443730       0.000000
    265.763032     338.515244     119.641398       0.000000
    279.889312     350.263926     121.711134       0.000000
    283.609726     366.904340     127.151060       0.000000
    283.315693     375.875134     131.056654       0.000000
    285.356775     384.732865     132.327374       0.000000
    286.596051     408.220265     131.988539       0.000000
    274.706652     403.369328     133.589193       0.000000
    277.612352     412.366770     133.069418       0.000000
    291.132230     424.729413     129.168830       0.000000
    278.130211     426.521315     131.004974       0.000000
    293.552183     437.702005     126.605555       0.000000
    279.080220     440.811188     127.416727       0.000000
    277.678338     451.113519     126.297981       0.000000
    273.918299     468.764828     124.058583       0.000000
    285.305066     469.246079     126.394808       0.000000
    279.341193     488.584358     125.232043       0.000000
    280.000000     500.000000     125.868143       0.000000
    290.000000      10.000000     126.975782       0.000000
    294.678317      18.609846     126.340667       0.000000
    289.734066      31.188774     124.325452       0.000000
    281.443561      37.779743     123.513687       0.000000
    289.828404      43.554064     124.774031       0.000000
    292.489411      53.232356     125.396323       0.000000
    295.791604      62.612454     125.448878       0.000000
    292.739987      84.119545     128.613692       0.000000
    280.958460      90.933450     128.418804       0.000000
    298.265334      91.978255     132.785419       0.000000
    293.164182     101.767580     135.899163       0.000000
    296.165643     113.597204     137.779095       0.000000
    275.919682     107.336431     130.225694       0.000000
    280.066565     118.051467     134.609176       0.000000
    304.167115     147.838338     134.575952       0.000000
    297.567078     158.094125     131.002884       0.000000
    276.078043     157.107218     126.964851       0.000000
    298.018085     185.021371     118.802141       0.000000
    281.474490     190.334990     116.433647       0.000000
    291.966778     201.505968     114.680588       0.000000
    296.802826     210.091758     113.999445       0.000000
    296.850955     233.569454     118.178893       0.000000
    309.150558     236.713527     120.552696       0.000000
    291.115193     239.920736     121.038489       0.000000
    289.802572     249.406145     124.075868       0.000000
    295.541283     263.644598     125.841682       0.000000
    278.775224     265.804754     126.060692       0.000000
    284.546161     279.851188     126.032251       0.000000
    292.079250     293.425247     123.869646       0.000000
    287.176387     319.391676     119.699574       0.000000
    296.073750     321.862142     119.953554       0.000000
    277.604993     321.119998     119.764383       0.000000
    288.731252     332.589238     118.832392       0.000000
    275.238484     340.107213     120.106608       0.000000
    286.418772     343.025367     121.399295       0.000000
    293.215135     349.308867     123.736666       0.000000
    285.907397     357.487243     124.669518       0.000000
    294.077937     369.065882     127.233129       0.000000
    287.228736     397.923788     133.790012       0.000000
    301.344038     395.192676     131.773498       0.000000
    284.142372     418.568683     132.963694       0.000000
    298.356802     429.452944     126.074393       0.000000
    283.977284     432.959991     127.887174       0.000000
    288.681076     447.134602     126.063369       0.000000
    303.600870     443.663967     126.539876       0.000000
    294.457985     455.610232     126.991042       0.000000
    285.158485     460.188977     126.991276       0.000000
    290.933532     477.055664     128.045927       0.000000
    287.993197     490.616973     127.073165       0.000000
    290.000000     500.000000     127.159113       0.000000
    300.000000      10.000000     128.261197       0.000000
    299.143069      29.756290     126.738714       0.000000
    298.938656      40.415727     125.673651       0.000000
    308.169141      39.525455     126.118571       0.000000
    304.824317      59.206285     126.036774       0.000000
    310.357388      68.127862     126.917817       0.000000
    292.749587      71.785508     126.175697       0.000000
    302.045347      72.654746     127.166889       0.000000
    302.891034      99.289018     135.842559       0.000000
    318.497385      94.887629     132.095024       0.000000
    308.507222      91.548663     133.279330       0.000000
    304.320865     108.368092     138.144893       0.000000
    286.230527     109.796040     135.247338       0.000000
    295.298966     126.648746     137.966175       0.000000
    306.694885     157.697316     132.355490       0.000000
    305.381034     166.220492     129.690202       0.000000
    294.047685     171.797545     125.787388       0.000000
    301.297148     176.427003     122.689507       0.000000
    291.647746     191.546215     117.894959       0.000000
    306.048042     206.656547     114.652431       0.000000
    310.577200     216.662400     114.023282       0.000000
    300.143083     219.999890     113.297752       0.000000
    304.989223     226.824053     117.078563       0.000000
    300.611687     240.309109     122.834973       0.000000
    298.087862     254.981137     125.560029       0.000000
    318.080471     266.421329     123.580596       0.000000
    303.319783     268.223952     126.599289       0.000000
    296.294360     274.650409     125.299444       0.000000
    303.600586     294.881807     123.598697       0.000000
    297.399261     301.680628     123.683408       0.000000
    306.254462     307.370872     123.077771       0.000000
    304.621672     326.235195     120.750344       0.000000
    306.948144     336.035688     120.000539       0.000000
    297.466710     335.329692     118.961018       0.000000
    300.394348     344.132557     122.003571       0.000000
    295.940237     358.103027     124.759523       0.000000
    302.494447     365.134426     124.106624       0.000000
    293.217920     377.771637     130.855456       0.000000
    305.480170     385.174829     127.509370       0.000000
    313.189343     386.811584     122.937860       0.000000
    296.303115     403.149617     131.840907       0.000000
    294.022344     413.639163     130.716705       0.000000
    306.135922     434.341708     124.712955       0.000000
    313.118322     444.209148     124.775722       0.000000
    321.970245     450.472045     123.718761       0.000000
    293.160492     464.960630     127.409104       0.000000
    299.459051     471.724161     128.875338       0.000000
    309.119877     490.944900     129.371298       0.000000
    299.555902     480.885492     129.243440       0.000000
    300.000000     500.000000     128.852219       0.000000
    310.000000      10.000000     129.814925       0.000000
    303.514569      20.907807     128.246002       0.000000
    310.044831      30.054198     127.257694       0.000000
    303.228355      49.035767     125.698301       0.000000
    325.114713      65.771803     125.318504       0.000000
    325.975013      56.088502     125.609771       0.000000
    310.559483      78.372381     127.353674       0.000000
    318.391348      72.802081     126.185709       0.000000
    303.716509      84.230728     129.227883       0.000000
    331.183374      87.715489     126.921881       0.000000
    303.325950     122.312989     139.907374       0.000000
    288.468729     120.642060     136.766296       0.000000
    303.948514     133.377244     138.306250       0.000000
    295.423111     143.753669     135.472888       0.000000
    313.167855     147.788149     132.683109       0.000000
    322.445685     150.784971     131.001192       0.000000
    310.951889     174.835263     123.122858       0.000000
    322.158108     176.226155     122.582887       0.000000
    302.395654     195.271972     116.523316       0.000000
    312.905251     195.733999     115.533512       0.000000
    316.480750     209.058796     114.799157       0.000000
    313.908381     225.363894     118.139696       0.000000
    328.543223     228.093572     120.666367       0.000000
    319.331704     233.085174     120.430180       0.000000
    310.160945     259.984386     124.609324       0.000000
    305.062600     277.169054     125.462419       0.000000
    305.805983     286.099417     124.431457       0.000000
    293.462764     283.968742     124.093559       0.000000
    320.127009     284.320362     126.339501       0.000000
    324.485936     294.885780     121.875585       0.000000
    314.598515     295.882698     123.764535       0.000000
    303.955655     316.321723     120.986635       0.000000
    318.097113     321.420936     121.371635       0.000000
    313.663519     329.583238     120.634782       0.000000
    323.114206     352.206365     118.853625       0.000000
    317.155882     339.303795     119.982444       0.000000
    309.642671     345.609824     120.628677       0.000000
    302.045368     374.198711     126.082029       0.000000
    310.374784     376.671412     123.164946       0.000000
    294.217987     389.462452     132.742699       0.000000
    306.091576     405.911540     129.200054       0.000000
    304.059427     416.557475     126.927003       0.000000
    314.203215     418.833153     124.219218       0.000000
    317.877913     470.529952     125.441908       0.000000
    314.206028     459.936106     125.030418       0.000000
    307.415921     452.550064     126.171230       0.000000
    302.132542     461.302271     126.406685       0.000000
    311.414247     479.014869     127.680156       0.000000
    298.046318     490.931948     129.252215       0.000000
    310.000000     500.000000     129.040147       0.000000
    320.000000      10.000000     129.395693       0.000000
    312.876181      18.940108     129.572111       0.000000
    319.768098      26.349756     128.923189       0.000000
    314.566674      48.899276     125.834012       0.000000
    315.973948      58.771405     126.500583       0.000000
    332.925763      70.556143     123.772974       0.000000
    342.725280      71.200789     120.891569       0.000000
    327.408386      78.791191     125.621570       0.000000
    317.262722      85.254055     128.774788       0.000000
    333.142475     108.255993     132.070002       0.000000
    322.354819     102.982275     134.386140       0.000000
    311.449110     117.359988     139.756356       0.000000
    312.042921     129.017231     137.517942       0.000000
    311.158537     138.422362     134.494706       0.000000
    324.163541     132.265944     134.841142       0.000000
    330.397356     172.488661     122.941343       0.000000
    314.953927     161.557416     130.373599       0.000000
    318.595685     186.803615     119.066883       0.000000
    309.858661     184.320204     117.664992       0.000000
    324.807244     204.014106     114.495467       0.000000
    321.959392     217.420563     116.231525       0.000000
    334.070973     220.528851     120.024252       0.000000
    314.459615     243.870264     122.622046       0.000000
    305.075821     248.753641     125.316731       0.000000
    324.983153     255.411310     123.859790       0.000000
    315.929932     253.215769     122.838545       0.000000
    337.881254     263.999222     126.907377       0.000000
    313.815883     274.915655     125.192170       0.000000
    329.447156     282.406835     125.813296       0.000000
    319.762081     303.292784     122.228184       0.000000
    313.783391     313.243376     121.824827       0.000000
    335.872012     333.053330     117.455977       0.000000
    325.918470     343.581204     118.444037       0.000000
    346.315585     334.335593     115.631310       0.000000
    334.703067     352.434871     115.288816       0.000000
    314.479727     358.683751     121.720995       0.000000
    305.529223     355.143578     122.957021       0.000000
    312.188305     367.436640     121.243375       0.000000
    320.933029     393.488759     121.929399       0.000000
    322.934817     404.474995     122.140246       0.000000
    308.074881     425.446390     124.985560       0.000000
    315.620215     429.638151     121.958557       0.000000
    328.834870     445.066878     121.443172       0.000000
    324.543473     427.281261     119.945205       0.000000
    323.224943     459.504853     124.490280       0.000000
    347.179666     449.038144     122.404456       0.000000
    308.444949     470.631308     126.021612       0.000000
    322.875460     480.515827     127.252544       0.000000
    320.805847     490.814161     128.908372       0.000000
    320.000000     500.000000     129.784693       0.000000
    330.000000      10.000000     130.223699       0.000000
    338.586597      18.956590     129.510858       0.000000
    327.635844      19.077300     129.752553       0.000000
    328.373299      29.654291     128.403315       0.000000
    320.795589      37.564561     127.735221       0.000000
    347.464771      58.343093     122.464151       0.000000
    335.118142      51.361461     124.308441       0.000000
    330.563532      97.347771     129.664252       0.000000
    349.273091      93.954864     124.821513       0.000000
    323.924919     113.262085     136.235278       0.000000
    336.626009     116.635419     130.549858       0.000000
    340.537292     104.050051     127.992685       0.000000
    318.792630     122.953947     137.732100       0.000000
    332.885345     129.419416     131.909263       0.000000
    319.858755     141.374104     132.838219       0.000000
    320.099560     168.491169     127.365530       0.000000
    327.663695     158.778527     128.939574       0.000000
    328.516001     182.598016     120.208740       0.000000
    336.757061     194.248107     117.803107       0.000000
    334.257991     203.487895     117.161240       0.000000
    329.540234     212.293835     117.183005       0.000000
    327.803244     237.106591     122.345229       0.000000
    333.983320     245.773370     124.484606       0.000000
    323.550945     245.606102     122.480380       0.000000
    334.198622     254.789940     125.939908       0.000000
