     37.937751     209.703399     134.328018       0.000000
     30.860657     201.817835     135.192009       0.000000
     36.585278     220.671463     136.492960       0.000000
     41.208320     230.743327     134.093442       0.000000
     56.127616     236.559115     125.140541       0.000000
     37.753637     249.396210     131.834796       0.000000
     42.910777     256.548927     129.682391       0.000000
     47.567340     270.436647     127.709204       0.000000
     40.153990     265.319250     128.030086       0.000000
     36.620494     273.815151     128.315125       0.000000
     42.916702     304.383680     123.704562       0.000000
     26.730389     311.844674     124.666369       0.000000
     50.871243     300.115298     123.591821       0.000000
     36.836597     311.056662     124.659636       0.000000
     50.214568     324.517771     125.939196       0.000000
     45.093541     332.338247     128.959648       0.000000
     45.796395     343.543425     131.279914       0.000000
     38.214234     348.892828     132.249236       0.000000
     33.365879     359.234753     133.346962       0.000000
     27.776068     394.429845     125.419333       0.000000
     34.581284     377.532120     128.750663       0.000000
     38.776187     406.576560     129.589375       0.000000
     43.520744     420.650164     129.856100       0.000000
     36.909143     426.404783     126.874268       0.000000
     37.369048     436.717952     126.118022       0.000000
     42.714035     445.826030     126.752766       0.000000
     51.877295     455.056921     129.908133       0.000000
     29.721238     473.698089     123.148266       0.000000
     54.008427     470.252999     128.346495       0.000000
     48.067200     463.193633     127.656747       0.000000
     36.864568     483.376915     124.646294       0.000000
     40.000000     500.000000     121.008354       0.000000
     50.000000      10.000000     120.054841       0.000000
     50.140897      20.681452     117.629761       0.000000
     37.996206      40.116600     115.343874       0.000000
     69.886915      29.814907     117.866625       0.000000
     48.185429      50.340391     114.747320       0.000000
     62.622763      64.445298     113.100471       0.000000
     46.435251      67.966080     111.629323       0.000000
     37.219552      73.816997     110.599417       0.000000
     54.178275      88.068777     108.241284       0.000000
     52.573403     108.939090     109.103347       0.000000
     50.236999     120.013133     111.141753       0.000000
     51.306019     138.867542     117.526447       0.000000
     38.120614     145.745972     122.017121       0.000000
     54.751207     168.371241     123.111900       0.000000
     45.656348     163.683101     125.780949       0.000000
     63.681797     173.680416     121.110882       0.000000
     51.335966     176.552173     125.763497       0.000000
     40.736783     180.230764     127.914371       0.000000
     33.505118     193.479815     132.119213       0.000000
     42.542400     199.736078     130.800363       0.000000
     54.403477     205.099512     125.397040       0.000000
     46.409744     209.045914     130.177720       0.000000
     46.209950     219.329677     131.133658       0.000000
     50.428031     249.070339     127.266085       0.000000
     60.956650     244.690126     123.568540       0.000000
     60.045174     258.953466     125.447703       0.000000
     45.573594     279.711559     127.124910       0.000000
     42.177183     293.193077     125.679776       0.000000
     57.497255     269.756899     127.416886       0.000000
     63.641137     276.664774     126.214099       0.000000
     50.643707     289.923097     126.895558       0.000000
     45.857626     314.258710     124.221201       0.000000
     54.947649     336.585182     129.553090       0.000000
     46.307229     355.431574     133.570460       0.000000
     57.765190     364.243843     132.843153       0.000000
     55.354849     353.863768     133.763759       0.000000
     47.221055     375.654342     131.776229       0.000000
     38.312027     368.684610     132.141420       0.000000
     37.157100     386.461053     127.168597       0.000000
     47.664662     402.257904     132.106028       0.000000
     48.462742     412.171111     132.221502       0.000000
     54.440616     418.891082     131.182587       0.000000
     48.678192     428.054019     130.551620       0.000000
     41.136842     455.871382     125.911616       0.000000
     57.234906     437.759552     131.924918       0.000000
     63.499077     453.374429     131.666186       0.000000
     65.134299     468.982476     130.014442       0.000000
     49.298866     478.248703     127.216808       0.000000
     44.008141     491.421179     123.396916       0.000000
     50.000000     500.000000     121.649245       0.000000
     60.000000      10.000000     121.225707       0.000000
     58.620870      31.388061     117.761343       0.000000
     48.336186      40.094827     115.173449       0.000000
     68.789342      38.788132     116.746851       0.000000
     68.754348      48.159965     116.550482       0.000000
     59.510078      55.928471     114.151197       0.000000
     54.933156      71.210289     110.520681       0.000000
     50.027441      97.605402     108.859579       0.000000
     63.784608      83.834487     112.022984       0.000000
     59.187207     100.443437     110.052060       0.000000
     68.439774     105.854403     113.495148       0.000000
     61.159711     111.373793     110.810411       0.000000
     67.831664     117.144699     112.804495       0.000000
     60.847128     122.951483     112.727196       0.000000
     58.092277     145.089782     118.437481       0.000000
     52.388432     157.196660     120.762525       0.000000
     64.448399     153.160662     119.151410       0.000000
     54.220138     185.259361     124.491396       0.000000
     45.510356     188.298897     127.448628       0.000000
     55.084332     195.313704     124.690507       0.000000
     63.720066     202.982673     122.577192       0.000000
     58.342769     214.222352     123.715773       0.000000
     49.923005     228.280470     128.337872       0.000000
     65.519579     231.070887     121.653568       0.000000
     73.945862     239.774416     119.405896       0.000000
     70.311785     248.008000     121.676501       0.000000
     51.546525     261.729874     126.776174       0.000000
     72.723339     275.449141     125.446209       0.000000
     55.691854     282.227742     126.759466       0.000000
     60.661121     294.915799     128.271892       0.000000
     54.762441     316.698953     124.797835       0.000000
     67.181999     318.005163     125.201379       0.000000
     72.425770     326.948098     126.088189       0.000000
     63.694649     356.525931     131.053212       0.000000
     66.479063     368.104114     134.030986       0.000000
     46.651767     365.087708     133.872934       0.000000
     62.941446     378.779775     135.262795       0.000000
     54.897439     383.182952     133.289653       0.000000
     53.306350     393.246494     132.957881       0.000000
     61.487452     401.759933     135.058286       0.000000
     58.207065     410.726229     133.716045       0.000000
     66.002043     416.212575     132.555612       0.000000
     67.365508     427.652964     131.403507       0.000000
     56.037829     447.227839     131.835686       0.000000
     46.950250     437.912972     129.307970       0.000000
     58.873981     461.459596     130.320016       0.000000
     75.373359     475.105512     129.476308       0.000000
     59.691215     480.339774     128.128397       0.000000
     53.103498     486.586099     125.621041       0.000000
     60.000000     500.000000     123.429495       0.000000
     70.000000      10.000000     122.586168       0.000000
     61.786630      20.342720     119.689959       0.000000
     72.048883      18.981030     120.769952       0.000000
     80.010187      53.439500     118.192994       0.000000
     71.130700      57.702276     116.333551       0.000000
     75.891339      67.468155     119.451485       0.000000
     49.487733      80.180441     110.489400       0.000000
     64.263432      73.692055     113.935557       0.000000
     72.053912      77.524216     116.387144       0.000000
     68.052679      92.342353     113.486045       0.000000
     77.321416     109.840559     115.975438       0.000000
     76.217056     120.321507     114.399605       0.000000
     69.709257     127.540511     114.361249       0.000000
     82.749029     144.200503     116.871632       0.000000
     58.144236     132.774501     115.413064       0.000000
     65.097994     139.545447     116.837876       0.000000
     75.060068     170.704152     119.325302       0.000000
     87.508953     162.251920     119.881654       0.000000
     62.912601     184.533964     122.139470       0.000000
     69.584182     194.502880     120.568337       0.000000
     67.186846     221.532368     121.609056       0.000000
     58.404917     223.992137     125.107255       0.000000
     76.099514     219.532923     119.045125       0.000000
     74.166344     228.482586     118.149951       0.000000
     82.317981     242.602388     116.879622       0.000000
     71.591360     257.565980     122.300406       0.000000
     79.810161     251.208500     118.126535       0.000000
     67.527803     266.062688     125.454171       0.000000
     78.513836     290.650768     127.048720       0.000000
     67.659310     284.818892     127.551610       0.000000
     57.492399     306.852722     123.384875       0.000000
     68.184531     306.257878     124.385494       0.000000
     67.466746     334.481587     128.166233       0.000000
     59.459089     327.574087     126.853604       0.000000
     67.173272     343.583979     129.407278       0.000000
     72.857166     352.161407     129.509196       0.000000
     55.859273     373.317097     133.086026       0.000000
     61.917427     390.612404     134.973617       0.000000
     70.531332     393.441462     135.618230       0.000000
     73.771452     385.093739     137.915532       0.000000
     69.980143     405.782833     133.949978       0.000000
     75.546217     423.223802     132.005014       0.000000
     67.050709     437.131312     132.989707       0.000000
     69.450096     446.410062     133.083772       0.000000
     70.643231     460.606122     131.425870       0.000000
     79.172532     464.630165     131.372178       0.000000
     69.446630     482.812763     129.392542       0.000000
     61.533579     490.087627     126.828695       0.000000
     74.597253     490.790972     127.618838       0.000000
     70.000000     500.000000     124.491548       0.000000
     80.000000      10.000000     122.624417       0.000000
     90.131657      21.592217     123.153970       0.000000
     79.811918      23.806343     120.042690       0.000000
     78.553153      33.260900     119.120948       0.000000
     85.932324      47.080625     122.552925       0.000000
     85.492160      65.693518     123.899717       0.000000
     90.294728      73.519548     125.393332       0.000000
     81.203385      74.758881     120.702242       0.000000
     85.250839      93.341650     120.279525       0.000000
     74.682269      86.114983     116.955722       0.000000
     75.300285      98.772943     116.331851       0.000000
     84.824136     116.092154     118.088035       0.000000
     84.728461     126.014711     116.604207       0.000000
     90.201168     149.523016     119.239621       0.000000
     87.307348     136.216198     117.048678       0.000000
     71.511580     146.577505     117.535959       0.000000
     73.683049     158.347183     118.669086       0.000000
     77.769096     190.688339     119.395078       0.000000
     86.967287     193.621403     118.649092       0.000000
     70.093283     209.457751     120.493193       0.000000
     78.989322     210.901895     119.131407       0.000000
     91.903986     212.016050     116.794439       0.000000
     83.341689     231.466153     116.538814       0.000000
    101.611954     233.038976     113.464285       0.000000
     86.365051     260.117361     116.206689       0.000000
     78.043014     266.579401     119.485603       0.000000
     80.111244     281.308316     125.057347       0.000000
     88.880748     287.631747     124.267588       0.000000
     69.609007     294.040563     127.269282       0.000000
     81.285633     303.181427     125.547025       0.000000
     89.104453     311.685889     124.799626       0.000000
     75.993310     311.154604     124.770004       0.000000
     78.558150     320.709637     123.733928       0.000000
     57.656662     345.039476     131.475201       0.000000
     84.333173     346.569530     128.518025       0.000000
     71.969964     360.858238     131.892942       0.000000
     88.097074     374.248059     133.778605       0.000000
     81.970480     381.588023     135.493471       0.000000
     74.808246     374.307134     135.393815       0.000000
     77.155394     400.037328     133.494268       0.000000
     88.438956     397.913156     132.143477       0.000000
     74.884011     413.780526     132.404157       0.000000
     57.699849     428.811814     130.168689       0.000000
     86.875866     441.700712     130.151230       0.000000
     78.463716     454.371196     131.032498       0.000000
     87.553137     460.517331     130.079101       0.000000
     86.920076     470.087196     129.411850       0.000000
     79.813984     482.900026     127.950931       0.000000
     86.639091     490.123446     125.851867       0.000000
     80.000000     500.000000     124.680156       0.000000
     90.000000      10.000000     123.313165       0.000000
     87.196339      35.447527     122.894930       0.000000
     93.984877      44.177888     126.324835       0.000000
     76.649511      44.117444     118.441224       0.000000
     88.358105      56.531975     123.495578       0.000000
     95.443495      62.870146     127.147447       0.000000
    103.417592      66.829283     129.825797       0.000000
     91.237013      82.927742     125.280529       0.000000
     83.399546      84.422505     120.633637       0.000000
     91.081367     100.655574     124.356600       0.000000
     84.669507     105.937629     119.830531       0.000000
     92.732091     122.644313     119.751924       0.000000
     96.233041     131.819854     118.921860       0.000000
     95.979320     141.375288     118.347070       0.000000
     77.750730     135.735062     116.010312       0.000000
     89.723845     173.412749     120.137240       0.000000
     81.642950     153.671329     119.365101       0.000000
     72.710459     182.504271     119.662559       0.000000
     95.796003     191.980734     119.351796       0.000000
    105.319340     199.101997     120.256496       0.000000
     75.551395     200.959779     118.472126       0.000000
     86.379716     203.448497     118.165964       0.000000
    102.293681     213.285409     117.651141       0.000000
     85.085663     218.654300     117.133879       0.000000
     97.128214     260.897538     114.956517       0.000000
     90.800000     238.256704     114.721759       0.000000
     91.948256     269.608325     117.798049       0.000000
    120.435544     284.133219     117.562781       0.000000
    104.515843     281.751018     118.386997       0.000000
     83.977117     273.357838     121.560419       0.000000
     98.035410     313.129078     125.253471       0.000000
     89.617332     322.866197     124.169320       0.000000
     82.493058     332.767998     125.659532       0.000000
     76.545542     340.419736     127.248189       0.000000
     92.265513     352.379585     128.848645       0.000000
     81.273530     357.546220     131.098922       0.000000
     99.804440     378.914593     127.991373       0.000000
     80.294244     366.890480     133.886644       0.000000
     81.034630     390.825501     136.014361       0.000000
     97.385005     393.715815     129.261853       0.000000
     88.578529     410.120089     132.076317       0.000000
     92.855130     425.664975     126.589326       0.000000
     84.954574     420.794277     130.213080       0.000000
     77.967651     442.431612     133.013315       0.000000
     81.447828     431.801426     132.325545       0.000000
     86.838977     451.039617     127.956003       0.000000
     96.162090     470.472420     127.188160       0.000000
     90.553313     480.100594     127.620540       0.000000
     95.359332     491.652515     124.090970       0.000000
     90.000000     500.000000     124.383180       0.000000
    100.000000      10.000000     123.619040       0.000000
    101.041342      19.980581     123.211856       0.000000
     94.746841      29.654091     124.309494       0.000000
    100.201903      37.563852     125.581225       0.000000
     97.528038      52.433405     127.607963       0.000000
    104.860992      45.484533     128.668191       0.000000
    107.207394      54.727773     130.341382       0.000000
    100.311599      76.301055     128.869287       0.000000
     98.947141      85.814668     129.815844       0.000000
     93.005124      91.847999     126.413517       0.000000
     99.249205     104.205867     126.924167       0.000000
     92.157835     110.170799     123.548524       0.000000
    105.960589     126.543859     123.275037       0.000000
     98.692144     116.566593     122.751099       0.000000
     65.761142     162.492179     121.195774       0.000000
     96.532629     162.258091     121.093439       0.000000
     82.041270     180.176790     119.409461       0.000000
     91.115032     184.217809     118.814590       0.000000
    118.304795     196.065244     123.427447       0.000000
    109.078279     207.563503     119.384105       0.000000
     95.373224     202.017593     118.283834       0.000000
    109.399328     238.883913     113.178457       0.000000
    102.702238     222.479173     115.945095       0.000000
    105.208276     257.257345     112.818390       0.000000
    101.973745     268.954300     116.637800       0.000000
     95.791126     278.693874     119.757432       0.000000
     97.016416     291.555729     123.747231       0.000000
    111.644451     290.517256     118.833498       0.000000
    106.137751     298.606411     122.478045       0.000000
     90.411339     297.606153     126.166592       0.000000
     97.962126     302.732381     125.730042       0.000000
     98.013979     331.586314     126.230091       0.000000
    113.288132     342.080855     123.842302       0.000000
     91.173393     338.421985     127.242212       0.000000
    100.204370     341.377025     125.308903       0.000000
     90.496501     362.693314     129.956852       0.000000
     97.435184     369.211108     128.891760       0.000000
     91.690824     383.637879     131.394816       0.000000
    110.217397     381.483970     123.784870       0.000000
    104.542636     388.185845     125.825357       0.000000
     98.417074     404.742696     127.889714       0.000000
     98.244879     417.460952     125.950074       0.000000
    114.938508     422.244016     120.863495       0.000000
    103.876262     424.350049     123.849398       0.000000
    107.502345     453.882162     122.277516       0.000000
    103.716522     464.453458     124.535772       0.000000
     98.499742     456.833567     126.225975       0.000000
     99.208639     481.379875     125.388964       0.000000
    104.893366     491.486628     124.929079       0.000000
    100.000000     500.000000     124.337909       0.000000
    110.000000      10.000000     124.698310       0.000000
    113.692528      19.390217     124.820740       0.000000
    106.060397      28.956285     124.189196       0.000000
    118.901679      29.926113     125.434848       0.000000
    117.228534      51.067095     128.817826       0.000000
    114.808231      63.133401     131.248443       0.000000
    111.729103      71.756914     132.146148       0.000000
    108.235224      81.024254     131.005709       0.000000
    119.446744      81.148129     131.590751       0.000000
    104.162611      94.748632     129.340798       0.000000
    115.556531     127.811045     124.665143       0.000000
    109.559765     107.358464     128.887389       0.000000
    118.640986     136.392275     125.079994       0.000000
    105.406592     135.305593     120.939818       0.000000
    108.706496     146.633328     122.398778       0.000000
    127.702991     169.442543     129.543510       0.000000
    106.592080     160.791057     121.787174       0.000000
    103.279013     170.916811     121.640792       0.000000
    101.244146     181.626959     120.420763       0.000000
    128.816041     197.697144     125.908591       0.000000
    116.304370     214.299971     118.120078       0.000000
    112.749942     224.162389     115.400449       0.000000
     93.188761     224.509463     116.068073       0.000000
     90.214965     248.727995     115.232830       0.000000
    117.308287     255.834941     113.188592       0.000000
    122.549203     264.110213     113.754255       0.000000
    112.961713     278.362135     116.629613       0.000000
    121.718839     293.163725     118.683410       0.000000
    119.418494     302.432835     118.407538       0.000000
    108.151039     307.616211     122.219502       0.000000
    107.100679     317.004432     123.673524       0.000000
    107.358688     335.346148     125.639050       0.000000
    127.311788     336.207181     122.308574       0.000000
    117.938084     332.865638     122.822073       0.000000
    104.505757     351.162958     124.163302       0.000000
     98.655124     360.342251     126.634875       0.000000
    108.901848     359.970439     124.407734       0.000000
    108.383076     370.961563     125.148044       0.000000
    113.450518     390.040823     122.619224       0.000000
    107.682780     399.440713     125.307010       0.000000
    105.525076     411.343403     125.132990       0.000000
    114.738947     410.537155     123.231911       0.000000
    122.203297     429.749121     116.598010       0.000000
    110.264383     431.273697     121.021381       0.000000
     94.799617     446.480324     125.932121       0.000000
    112.528761     462.716367     121.656633       0.000000
    129.066555     480.647065     120.699459       0.000000
    106.898939     473.034284     123.823653       0.000000
    108.607562     482.467417     124.289965       0.000000
    110.000000     500.000000     124.541182       0.000000
    120.000000      10.000000     124.955146       0.000000
    123.397996      19.230598     125.797019       0.000000
    132.061504      26.632498     126.372861       0.000000
    114.665181      39.355499     127.321709       0.000000
    126.800795      53.256959     130.726377       0.000000
    139.559844      60.233644     129.189139       0.000000
    135.303684      69.363365     129.950088       0.000000
    125.492275      74.428438     131.788291       0.000000
    113.029320      90.793790     131.548197       0.000000
    117.368760     100.457549     129.400958       0.000000
    107.690543     117.487254     125.673620       0.000000
    125.728463     127.551406     127.272014       0.000000
    135.375710     125.667450     128.659584       0.000000
    100.416057     152.152161     121.446717       0.000000
    113.198012     154.804334     123.751293       0.000000
    141.541781     152.623484     130.317576       0.000000
    110.544913     179.905750     122.159107       0.000000
    113.766087     165.927133     124.260238       0.000000
    135.572305     203.896347     124.660122       0.000000
    117.658777     205.286011     121.209281       0.000000
    126.174357     216.960804     118.461821       0.000000
    125.908516     227.788964     115.774261       0.000000
    128.471984     236.381391     114.601208       0.000000
    100.402696     248.482786     113.028678       0.000000
    110.041910     249.321365     112.047535       0.000000
    111.963345     264.493065     113.648161       0.000000
    126.153760     248.906510     113.500988       0.000000
    121.547906     275.007431     114.840074       0.000000
    130.556367     290.553083     117.902246       0.000000
    131.621979     299.780958     118.873728       0.000000
    115.519786     314.343754     121.353823       0.000000
     98.730665     322.364084     125.560373       0.000000
    119.500276     323.772263     122.120262       0.000000
    131.021543     353.550946     124.523037       0.000000
    125.591604     345.754575     122.994114       0.000000
    116.671053     350.806753     122.706644       0.000000
    132.088887     381.997180     125.863097       0.000000
    118.861337     360.684248     124.525683       0.000000
    117.492200     370.543166     125.922139       0.000000
    116.454031     399.502415     122.860754       0.000000
    122.833684     409.775717     119.312579       0.000000
    124.274850     420.175272     117.581376       0.000000
    130.101469     434.618983     114.419919       0.000000
     94.695450     436.176289     127.281359       0.000000
    107.251628     444.973623     120.803789       0.000000
    115.962162     472.412402     122.139045       0.000000
    125.310399     471.305170     119.784911       0.000000
    142.278904     482.400991     121.046133       0.000000
    114.197609     491.728513     124.135350       0.000000
    120.000000     500.000000     124.412855       0.000000
    130.000000      10.000000     126.195293       0.000000
    134.487378      17.812210     126.349187       0.000000
    126.826560      34.307499     125.846685       0.000000
    150.660036      57.349615     128.608174       0.000000
    127.659174      43.952361     128.622358       0.000000
    134.121906      78.546237     130.620336       0.000000
    124.537116      62.983555     131.647456       0.000000
    126.175393      88.151985     131.058449       0.000000
    128.743776      98.733847     130.008117       0.000000
    118.734776     115.224684     126.374516       0.000000
    132.721099     114.812128     129.557303       0.000000
    141.913823     133.533319     129.920721       0.000000
    132.747175     134.337761     129.342712       0.000000
    119.915061     146.076219     126.877987       0.000000
    120.829942     159.889730     126.943038       0.000000
    134.995050     162.149054     130.967658       0.000000
    119.107038     173.318135     125.827926       0.000000
    107.059228     189.977782     120.939708       0.000000
    138.249369     195.353936     128.956428       0.000000
    144.484110     203.263877     126.822436       0.000000
    127.038213     207.451013     122.913689       0.000000
    134.757870     213.171980     122.090306       0.000000
    137.436486     235.739727     115.371454       0.000000
    134.891381     245.171361     114.571711       0.000000
    117.776743     231.746767     114.585218       0.000000
    118.646309     243.147746     112.558942       0.000000
    139.180932     262.482381     115.709144       0.000000
    128.996120     282.002406     115.387632       0.000000
    138.842940     286.804278     117.736751       0.000000
    138.539447     321.261804     120.610340       0.000000
    140.866073     300.836897     118.972532       0.000000
    108.927761     326.278546     125.203739       0.000000
    124.887343     312.882811     118.885160       0.000000
    129.216888     363.531453     125.524890       0.000000
    127.136166     372.482170     126.624062       0.000000
    136.356244     374.216135     128.197578       0.000000
    146.088713     377.898168     130.553426       0.000000
    123.177128     380.571057     124.762278       0.000000
    123.486458     390.475615     122.076441       0.000000
    125.453142     401.216334     121.052770       0.000000
    134.486656     404.390116     121.701187       0.000000
    132.037699     413.984914     119.739903       0.000000
    116.624100     440.328533     118.705203       0.000000
    102.741750     436.790267     123.119208       0.000000
    120.077183     484.601933     122.300481       0.000000
    131.324634     463.968918     118.587172       0.000000
    121.988533     461.781632     119.796929       0.000000
    136.346347     474.696399     120.155434       0.000000
    125.233144     492.329199     124.187228       0.000000
    130.000000     500.000000     126.192202       0.000000
    140.000000      10.000000     126.906217       0.000000
    143.503800      29.126476     126.764761       0.000000
    138.246172      49.286049     129.218065       0.000000
    137.144592      38.773007     126.244918       0.000000
    151.053896      67.321274     129.419627       0.000000
    161.033620      65.909826     129.014684       0.000000
    144.553024      73.884714     130.706036       0.000000
    135.285380      91.583330     130.372064       0.000000
    143.953562      94.597521     130.983672       0.000000
    125.814368     107.897073     128.646107       0.000000
    139.030129     102.818413     129.563095       0.000000
    144.522582     122.584062     129.768834       0.000000
    152.798495     135.122953     131.260571       0.000000
    128.026071     142.292052     128.757701       0.000000
    129.190075     154.143214     127.810571       0.000000
    136.653688     145.051683     128.658462       0.000000
    120.092685     182.981625     125.077140       0.000000
    151.858747     180.182253     132.969105       0.000000
    129.054700     188.664008     128.323346       0.000000
    146.519102     189.624312     131.558396       0.000000
    151.706357     199.209423     130.685920       0.000000
    133.865252     222.613264     118.140465       0.000000
    143.277725     222.300715     119.771464       0.000000
    132.568865     256.199485     113.496897       0.000000
    144.049369     253.301022     117.238249       0.000000
    131.639949     267.503357     115.018225       0.000000
    147.276707     281.183211     116.721404       0.000000
    148.059809     290.843393     118.071016       0.000000
    146.902809     313.702542     120.701028       0.000000
    161.162974     299.143887     123.430330       0.000000
    134.972256     312.091170     119.716559       0.000000
    128.910419     321.922134     118.635669       0.000000
    143.660869     334.222216     123.558503       0.000000
    135.226250     343.383133     124.939694       0.000000
    141.824772     350.136629     128.040877       0.000000
    147.026814     342.175449     126.809721       0.000000
    143.775070     369.105765     130.668831       0.000000
    142.186198     385.728671     126.866162       0.000000
    132.333024     391.897850     123.260228       0.000000
    141.210366     411.133400     122.877156       0.000000
    147.409877     427.896962     117.767029       0.000000
    148.803992     438.103384     116.079860       0.000000
    132.894254     425.075514     117.015601       0.000000
    134.775673     453.852677     116.633817       0.000000
    120.588028     451.458527     117.569682       0.000000
    128.852418     445.296090     115.125977       0.000000
    146.955723     474.899211     118.219721       0.000000
    152.989674     482.029286     121.088154       0.000000
    134.938848     489.068572     123.047502       0.000000
    140.000000     500.000000     126.100002       0.000000
    150.000000      10.000000     126.308899       0.000000
    144.626986      18.350068     126.921052       0.000000
    146.483363      37.717165     126.367717       0.000000
    155.817552      37.686059     128.307158       0.000000
    158.261948      47.575554     128.264623       0.000000
    149.157002      48.227119     128.174234       0.000000
    141.439402      84.255288     130.435678       0.000000
    153.982488      77.960577     131.274544       0.000000
    150.139795      87.836616     129.685455       0.000000
    156.263446      96.241519     129.709792       0.000000
    153.268297     116.276633     130.099819       0.000000
    141.450838     112.422164     129.007588       0.000000
    167.613164     126.735107     132.099082       0.000000
    147.658260     144.784142     130.787221       0.000000
    158.802842     145.289477     133.252669       0.000000
    145.019291     163.194752     132.105284       0.000000
    137.144300     172.236761     131.246627       0.000000
    128.502341     178.958840     128.791321       0.000000
    155.853606     188.241448     131.913603       0.000000
    160.264294     196.494308     129.174306       0.000000
    144.228197     212.723824     122.959631       0.000000
    153.127028     210.073996     124.608835       0.000000
    155.279807     227.758824     118.869305       0.000000
    162.122593     236.191081     118.080218       0.000000
    144.384560     241.516767     116.026767       0.000000
    154.061604     249.235074     116.964746       0.000000
    148.251255     262.672300     115.778629       0.000000
    163.594213     276.632763     123.690743       0.000000
    139.625847     273.015535     115.792456       0.000000
    151.622474     304.161173     121.089026       0.000000
    158.660910     309.724640     123.627681       0.000000
    134.908975     329.611767     120.499542       0.000000
    155.140308     318.699495     122.814559       0.000000
    157.802776     341.432367     129.581362       0.000000
    153.502204     333.129998     126.661410       0.000000
    151.664731     349.927424     131.301223       0.000000
    137.888947     359.741262     127.320935       0.000000
    139.691287     397.479168     124.669001       0.000000
    152.799166     384.720326     131.891304       0.000000
    142.748798     420.056584     119.461076       0.000000
    158.986637     429.736948     118.274739       0.000000
    155.777711     448.749348     115.557686       0.000000
    139.211045     431.490091     115.477098       0.000000
    141.211125     443.776811     116.773513       0.000000
    145.533748     451.667727     116.203602       0.000000
    143.338815     464.396923     116.693029       0.000000
    161.561908     470.861825     115.781027       0.000000
    166.552163     481.107638     121.581771       0.000000
    148.315207     490.154161     124.468056       0.000000
    150.000000     500.000000     125.896555       0.000000
    160.000000      10.000000     127.071708       0.000000
    158.819399      19.635762     127.472616       0.000000
    152.628241      29.092882     127.202886       0.000000
    165.497079      36.592529     127.155056       0.000000
    177.898591      50.947302     124.845520       0.000000
    159.642460      56.841989     127.952044       0.000000
    171.347521      66.876862     127.106242       0.000000
    167.038360      75.659961     128.033367       0.000000
    159.668881      85.922352     129.216443       0.000000
    158.540091     106.585603     130.028318       0.000000
    162.972722     117.066257     130.588282       0.000000
    153.258225     125.543740     129.691040       0.000000
    172.850832     135.375790     134.728623       0.000000
    161.936207     136.638174     133.569468       0.000000
    163.587565     154.972363     133.855912       0.000000
    149.771325     170.945889     133.104617       0.000000
    141.640844     181.992897     132.040156       0.000000
    160.627104     170.954871     134.228890       0.000000
    164.795247     179.802741     133.385799       0.000000
    162.643231     214.944892     121.940492       0.000000
    163.090611     204.918614     126.621705       0.000000
    193.979391     223.687319     114.933558       0.000000
    164.109284     223.569418     119.439421       0.000000
    171.754395     241.453639     118.375301       0.000000
    147.275516     231.850959     118.014944       0.000000
    163.186597     246.971892     118.527441       0.000000
    171.899683     272.352441     126.063618       0.000000
    156.625996     282.323313     121.221538       0.000000
    156.599118     291.535486     121.509049       0.000000
    170.555877     296.852515     125.687392       0.000000
    171.089375     308.864693     123.520146       0.000000
    146.819329     324.822084     122.935511       0.000000
    162.871408     331.887588     125.144196       0.000000
    163.622478     349.427710     132.360896       0.000000
    156.958216     357.288624     134.669385       0.000000
    156.331357     366.904538     134.922320       0.000000
    148.856239     361.048845     132.584427       0.000000
    154.119321     375.734223     134.423333       0.000000
    149.217029     396.789439     127.522413       0.000000
    149.166189     406.648165     125.987050       0.000000
    171.593447     410.898044     125.738096       0.000000
    151.277467     417.094734     122.544513       0.000000
    167.198865     438.319904     117.322499       0.000000
    177.750222     436.990235     120.645519       0.000000
    164.269704     451.907479     116.196758       0.000000
    172.381115     456.431777     117.602726       0.000000
    154.461090     458.627966     115.152392       0.000000
    170.631034     468.047776     115.914071       0.000000
    159.390069     488.217401     123.721039       0.000000
    160.000000     500.000000     125.814453       0.000000
    170.000000      10.000000     126.714489       0.000000
    162.999310      27.939556     126.823536       0.000000
    174.711873      31.113655     126.993205       0.000000
    186.640967      34.451242     125.744093       0.000000
    178.358796      41.645187     126.615505       0.000000
    168.325082      46.086240     127.058437       0.000000
    170.674965      57.068544     126.720478       0.000000
    174.323968      80.739768     126.048318       0.000000
    168.370379      89.935616     126.792402       0.000000
    166.191094      98.711917     128.251492       0.000000
    183.378529     120.177102     132.467325       0.000000
    148.887527     104.503744     131.882555       0.000000
    172.002932     118.002123     132.302365       0.000000
    167.900155     146.215226     134.721297       0.000000
    156.221107     162.097137     133.429225       0.000000
    153.099717     153.021756     131.793885       0.000000
    183.635829     171.439892     129.280435       0.000000
    172.116426     174.115838     131.085385       0.000000
    165.614891     189.094398     130.461296       0.000000
    172.113155     195.191313     127.363129       0.000000
    153.015659     218.844179     120.738685       0.000000
    184.571929     221.232949     117.891700       0.000000
    174.121821     230.127613     117.750558       0.000000
    167.361800     254.816639     120.682635       0.000000
    153.278418     238.647705     116.983429       0.000000
    150.887089     271.870176     116.261391       0.000000
    159.046991     267.068077     120.249107       0.000000
    176.172382     280.323060     128.553705       0.000000
    167.182757     286.608704     125.233415       0.000000
    175.654015     289.357099     128.268586       0.000000
    178.182442     302.752997     125.675871       0.000000
    163.783328     321.749213     124.424570       0.000000
    168.618158     340.206827     128.757328       0.000000
    173.575624     347.548660     132.096490       0.000000
    166.154320     359.431399     137.092803       0.000000
    174.284936     370.670529     137.064928       0.000000
    165.286691     374.177682     137.381729       0.000000
    163.253487     383.241732     136.273655       0.000000
    158.866682     391.635987     131.093644       0.000000
    157.644298     403.576094     127.606673       0.000000
    161.647985     412.438561     124.872111       0.000000
    177.923478     403.865060     127.195749       0.000000
    160.811881     421.107202     121.517582       0.000000
    158.342724     440.130816     116.238256       0.000000
    181.694822     460.492111     118.629706       0.000000
    152.612388     467.873056     115.856483       0.000000
    193.831954     455.814979     119.146904       0.000000
    178.310151     479.127583     119.628990       0.000000
    168.618015     490.354602     124.067458       0.000000
    170.000000     500.000000     125.677266       0.000000
    180.000000      10.000000     126.331402       0.000000
    168.342868      20.607952     127.777461       0.000000
    177.475285      18.831485     126.521156       0.000000
    183.088470      25.971874     127.103111       0.000000
    186.802167      48.017914     125.358516       0.000000
    179.781848      59.744065     124.434156       0.000000
    179.384977      90.226779     127.897266       0.000000
    187.884408      94.690930     127.469584       0.000000
    167.647082     109.067708     130.131147       0.000000
    177.576693     110.424824     129.649810       0.000000
    191.249693     113.352267     129.371102       0.000000
    189.530301     127.821058     133.372291       0.000000
    178.153888     127.761883     134.655111       0.000000
    180.322876     143.864457     135.505770       0.000000
    174.320235     155.153591     133.859766       0.000000
    166.798498     164.356801     132.921393       0.000000
    174.671267     184.264984     129.678143       0.000000
    181.526504     192.556840     126.221820       0.000000
    171.359025     209.729139     123.790564       0.000000
    174.645589     217.938182     119.904825       0.000000
    185.649769     211.781452     119.484622       0.000000
    194.811839     208.722764     117.334348       0.000000
    196.673745     234.005361     115.549474       0.000000
    180.968264     240.529869     118.221129       0.000000
    169.198183     263.904062     123.800052       0.000000
    156.366937     258.345634     118.898837       0.000000
    180.741694     272.005187     128.022538       0.000000
    184.882291     283.675665     129.602488       0.000000
    186.115569     294.871713     128.434803       0.000000
    189.040878     303.354373     126.903251       0.000000
    185.305443     314.571541     123.498175       0.000000
    174.464831     317.616184     122.230858       0.000000
    173.377741     331.875691     123.532309       0.000000
    177.486998     340.719651     127.027547       0.000000
    184.993677     350.045518     130.778143       0.000000
    183.383927     364.169262     133.838623       0.000000
    184.930831     375.478864     134.036474       0.000000
    172.596991     380.668783     136.754066       0.000000
    166.806298     401.022774     128.560102       0.000000
    170.381375     393.402598     132.761301       0.000000
    190.960150     392.168619     129.630340       0.000000
    187.406879     402.797926     126.873273       0.000000
    170.001700     420.577367     123.705867       0.000000
    170.686146     430.214470     119.796712       0.000000
    163.433788     461.046493     116.036097       0.000000
    188.072005     446.837424     118.334024       0.000000
    191.376544     471.088969     120.361322       0.000000
    180.370738     470.204550     119.576982       0.000000
    178.089956     489.964735     123.348205       0.000000
    180.000000     500.000000     125.219907       0.000000
    190.000000      10.000000     126.866325       0.000000
    189.601370      19.378119     126.392076       0.000000
    200.276186      35.701458     122.596089       0.000000
    196.133339      50.771612     122.114571       0.000000
    187.842422      68.492824     122.392172       0.000000
    190.515119      57.889647     122.970795       0.000000
    184.639792      78.979830     125.473454       0.000000
    191.516009      86.117962     125.256577       0.000000
    197.561281      94.396211     126.704017       0.000000
    175.014556     101.528901     127.677841       0.000000
    186.501945     103.928424     128.176059       0.000000
    197.554558     132.689544     133.939954       0.000000
    185.224106     135.809303     135.927652       0.000000
    197.712520     156.618484     130.011962       0.000000
    191.765755     175.518745     127.139474       0.000000
    200.647051     175.960131     125.638733       0.000000
    201.596955     187.584091     122.922428       0.000000
    184.494560     181.385942     128.295401       0.000000
    192.940004     185.769891     126.702490       0.000000
    195.576196     194.567053     123.013063       0.000000
    179.491494     204.986869     123.031534       0.000000
    202.895082     198.228383     118.691320       0.000000
    201.154527     217.244838     114.885390       0.000000
    185.279603     248.881901     119.819562       0.000000
    195.422968     252.402338     120.665914       0.000000
    179.366101     262.244480     124.467659       0.000000
    206.149469     270.012139     128.122129       0.000000
    198.640932     274.939648     128.848604       0.000000
    206.810723     294.661920     131.015727       0.000000
    194.899633     284.812255     130.299183       0.000000
    180.651370     324.422497     121.823333       0.000000
    191.345660     332.046171     121.575928       0.000000
    182.263482     334.365472     122.649700       0.000000
    188.357967     341.686910     124.802417       0.000000
    198.297543     349.356492     123.262464       0.000000
    176.110166     356.033630     135.851230       0.000000
    195.335387     365.735725     128.696664       0.000000
    190.312015     382.162858     131.177251       0.000000
    179.373673     386.278263     134.022564       0.000000
    181.260718     394.896589     130.985430       0.000000
    195.708509     408.051723     124.754759       0.000000
    178.951027     417.806797     124.014667       0.000000
    186.716529     412.612823     124.162447       0.000000
    181.426173     428.836515     121.720342       0.000000
    177.259425     447.118393     117.579440       0.000000
    200.392160     449.499833     119.349516       0.000000
    198.184731     479.334534     121.169902       0.000000
    188.984178     481.187279     120.800885       0.000000
    187.202669     490.147840     123.429872       0.000000
    190.000000     500.000000     125.597539       0.000000
    200.000000      10.000000     126.622557       0.000000
    202.507599      19.364896     125.604875       0.000000
    192.720863      40.640250     123.294847       0.000000
    196.657639      27.144626     125.347901       0.000000
    200.063653      59.316139     120.478807       0.000000
    178.708559      71.692548     124.980325       0.000000
    193.810811      77.423250     122.782668       0.000000
    209.265480      88.609388     123.563628       0.000000
    200.451703      85.732168     123.893850       0.000000
    208.020279     101.598764     127.208037       0.000000
    198.822219     106.834270     128.365638       0.000000
    207.746154     123.498039     131.409178       0.000000
    193.032411     141.693169     135.019887       0.000000
    188.261384     152.433883     132.186537       0.000000
    199.671302     147.489990     131.859947       0.000000
    209.960162     161.983578     127.390915       0.000000
    176.604870     165.654711     130.791046       0.000000
    217.369676     176.615484     120.637133       0.000000
