    108.255270     188.148267     121.959591       0.000000
    137.112943     195.046528     127.970746       0.000000
    144.593057     204.865767     126.424856       0.000000
    126.985580     208.788673     120.712092       0.000000
    134.788123     213.163057     122.033945       0.000000
    137.336226     231.312798     115.891103       0.000000
    133.828712     245.180042     114.426313       0.000000
    118.132773     233.196268     114.050225       0.000000
    118.411773     242.403095     112.173881       0.000000
    141.285570     262.662191     115.839756       0.000000
    128.573875     281.215950     115.841338       0.000000
    138.683152     286.043867     117.820484       0.000000
    138.703107     319.852470     120.717546       0.000000
    141.734835     300.435622     118.926981       0.000000
    109.039174     326.386608     124.846475       0.000000
    126.087727     310.841958     119.605629       0.000000
    129.435994     363.941586     127.192690       0.000000
    125.669223     371.913359     125.136749       0.000000
    135.060721     371.872083     128.020451       0.000000
    142.394731     379.507422     130.365774       0.000000
    122.874456     381.309698     123.608563       0.000000
    124.137099     390.285741     123.032594       0.000000
    125.989250     400.866812     120.742127       0.000000
    134.591294     403.584806     120.975886       0.000000
    131.692788     413.005734     119.736376       0.000000
    120.460154     440.211765     116.938994       0.000000
    100.919809     434.970268     123.632681       0.000000
    119.350357     482.428031     122.845034       0.000000
    132.326598     466.290975     119.021781       0.000000
    123.395079     462.189156     117.582997       0.000000
    137.816926     474.892580     119.224307       0.000000
    124.776683     490.801382     124.946495       0.000000
    130.000000     500.000000     125.245311       0.000000
    140.000000      10.000000     125.287739       0.000000
    142.358150      28.880605     126.020523       0.000000
    138.789748      49.249594     129.071274       0.000000
    136.795960      40.365591     126.955908       0.000000
    150.493104      66.610941     128.304979       0.000000
    161.264967      67.414465     126.773724       0.000000
    145.012518      76.933679     129.248326       0.000000
    135.185964      92.744178     130.406911       0.000000
    144.461173      94.727153     129.141462       0.000000
    126.644159     107.819848     129.390826       0.000000
    137.358145     102.884378     131.395499       0.000000
    145.191215     122.314078     129.471040       0.000000
    151.827283     135.924718     131.366151       0.000000
    126.687846     141.862749     127.102515       0.000000
    127.002035     153.807998     128.980987       0.000000
    137.888615     143.774398     131.345979       0.000000
    118.995352     182.818536     125.508878       0.000000
    154.865327     178.945865     131.476347       0.000000
    129.579804     187.253981     128.376886       0.000000
    146.615072     191.902713     130.343802       0.000000
    151.577331     199.369896     129.186433       0.000000
    133.521104     221.681024     119.256746       0.000000
    143.434619     223.375464     120.763108       0.000000
    132.230644     259.599770     112.327892       0.000000
    140.939298     253.014453     114.300365       0.000000
    130.516104     269.414636     113.866919       0.000000
    147.362119     282.694336     117.083833       0.000000
    146.648422     292.216122     118.703996       0.000000
    146.113032     312.225000     121.859895       0.000000
    161.297067     299.221716     123.392513       0.000000
    135.716422     310.092724     118.967982       0.000000
    129.430937     319.479505     119.269764       0.000000
    142.462751     333.234121     122.672887       0.000000
    135.705518     339.732703     122.967001       0.000000
    141.517442     349.737619     129.356466       0.000000
    145.944142     342.309617     126.768681       0.000000
    143.214137     367.199880     131.257708       0.000000
    143.070253     388.613805     128.336291       0.000000
    133.284427     392.361923     123.652172       0.000000
    141.198652     410.999205     120.733657       0.000000
    148.799485     427.663514     117.877431       0.000000
    148.435317     438.508981     114.998069       0.000000
    133.025103     423.215912     116.617799       0.000000
    131.822004     457.333697     116.363905       0.000000
    120.283310     453.033097     116.825662       0.000000
    128.406079     444.348318     114.910064       0.000000
    147.245165     473.838153     119.486585       0.000000
    151.563422     481.500700     122.664873       0.000000
    133.925287     490.909407     125.179331       0.000000
    140.000000     500.000000     125.480908       0.000000
    150.000000      10.000000     126.172343       0.000000
    145.021971      17.900598     125.640494       0.000000
    145.991473      38.014431     126.668665       0.000000
    154.991012      38.495618     126.688239       0.000000
    158.608408      48.213627     126.135205       0.000000
    148.668630      46.933128     126.966924       0.000000
    140.593907      85.045759     129.879280       0.000000
    154.232680      76.100593     127.957189       0.000000
    149.753332      86.040736     128.650940       0.000000
    155.434763      95.375321     128.503410       0.000000
    151.996326     116.245891     129.472411       0.000000
    141.164846     112.689823     130.327646       0.000000
    167.696235     126.052190     132.769950       0.000000
    148.487566     144.305879     132.388700       0.000000
    158.448030     143.958294     133.766022       0.000000
    143.320249     162.369308     133.436846       0.000000
    136.947817     174.800445     132.448252       0.000000
    128.478026     178.009287     129.376257       0.000000
    155.313145     188.947366     130.977960       0.000000
    160.505951     197.027778     130.079462       0.000000
    144.377689     213.654645     123.734099       0.000000
    153.627442     207.760073     125.264014       0.000000
    153.935273     226.561524     118.130400       0.000000
    161.228793     235.143451     117.851798       0.000000
    142.244870     240.475150     114.215134       0.000000
    152.125451     252.163516     117.123494       0.000000
    150.431194     263.601576     117.382006       0.000000
    162.813996     277.141871     124.232751       0.000000
    141.053340     275.510225     114.822951       0.000000
    153.472770     304.074630     121.121190       0.000000
    160.687078     309.200985     123.708219       0.000000
    133.874448     328.244137     120.399773       0.000000
    154.044661     320.427042     121.406893       0.000000
    156.117900     341.107422     127.477105       0.000000
    152.196938     332.597447     124.252232       0.000000
    150.132868     349.953858     132.818057       0.000000
    138.248791     359.706920     129.663921       0.000000
    141.351381     397.579692     124.170599       0.000000
    152.335379     385.481161     132.636640       0.000000
    142.217508     421.369756     119.382705       0.000000
    157.591458     428.237171     119.917880       0.000000
    155.832517     449.705022     115.218339       0.000000
    139.636571     433.211452     115.716907       0.000000
    140.064197     446.113006     114.408487       0.000000
    146.285299     452.819552     114.699193       0.000000
    142.990136     465.877378     117.281920       0.000000
    161.765372     472.433711     118.178818       0.000000
    164.326169     481.772800     120.375300       0.000000
    146.386136     490.620797     125.089168       0.000000
    150.000000     500.000000     126.232756       0.000000
    160.000000      10.000000     126.250772       0.000000
    158.994896      19.023015     127.610481       0.000000
    153.077628      27.910764     125.694686       0.000000
    164.025388      38.439334     126.040041       0.000000
    176.606581      50.295868     124.308714       0.000000
    157.116691      58.977641     127.010320       0.000000
    170.598383      68.751789     126.475070       0.000000
    165.881881      76.461253     127.320279       0.000000
    159.142496      86.498625     127.782697       0.000000
    158.396094     105.651914     129.639831       0.000000
    161.075794     118.861431     131.117406       0.000000
    154.177028     126.085616     130.278722       0.000000
    172.450575     134.176850     133.485050       0.000000
    162.695977     134.915356     132.629649       0.000000
    163.204669     155.877242     134.303717       0.000000
    151.331231     170.793551     134.123353       0.000000
    142.004941     182.836040     131.852898       0.000000
    160.701743     171.148266     133.534952       0.000000
    165.493517     179.778000     133.368897       0.000000
    163.867861     213.538661     122.070435       0.000000
    163.903570     205.116725     127.408840       0.000000
    193.900664     224.087243     116.188207       0.000000
    164.589064     223.463615     117.999268       0.000000
    169.937522     237.981091     118.352537       0.000000
    146.412616     231.586207     117.224714       0.000000
    161.185581     248.081857     118.641622       0.000000
    171.021928     272.291467     126.276385       0.000000
    155.686635     281.859680     121.343828       0.000000
    158.332527     290.687316     123.106292       0.000000
    170.013861     296.963799     124.307925       0.000000
    172.564106     308.908892     124.491766       0.000000
    146.177565     324.825960     122.208351       0.000000
    162.328868     328.992133     122.971766       0.000000
    165.038360     349.129256     132.517709       0.000000
    158.607937     354.997823     135.441619       0.000000
    156.521174     365.703252     137.072599       0.000000
    147.355524     359.016188     132.983100       0.000000
    154.690134     374.921523     135.939318       0.000000
    149.989527     394.973643     129.472936       0.000000
    147.220653     404.402749     124.330830       0.000000
    170.341273     410.001065     126.188484       0.000000
    151.813678     415.273458     122.681563       0.000000
    166.988270     439.468291     116.850443       0.000000
    177.495447     436.920370     118.763231       0.000000
    165.323266     450.507271     116.078802       0.000000
    174.309537     454.915618     118.013750       0.000000
    153.411129     458.671819     116.110455       0.000000
    170.207398     468.465887     117.387824       0.000000
    158.434450     490.147442     124.470477       0.000000
    160.000000     500.000000     124.658791       0.000000
    170.000000      10.000000     126.040024       0.000000
    162.228683      28.566966     127.033132       0.000000
    173.472276      32.623455     126.392274       0.000000
    188.216578      33.280669     125.575501       0.000000
    178.324797      41.349164     126.242570       0.000000
    167.798553      48.401409     124.926060       0.000000
    168.960181      57.990496     124.363475       0.000000
    175.409855      79.919503     126.941789       0.000000
    169.264470      89.739354     127.072728       0.000000
    165.533857      98.063480     127.853946       0.000000
    182.280639     118.582284     133.278020       0.000000
    147.904232     104.020447     128.836289       0.000000
    172.927580     118.547772     133.383088       0.000000
    169.435359     148.141651     133.968973       0.000000
    156.021452     162.443957     134.333014       0.000000
    150.671460     153.222778     133.775233       0.000000
    182.475428     173.463064     129.625978       0.000000
    173.412938     174.803963     130.637343       0.000000
    166.447274     188.668199     130.898067       0.000000
    171.276480     199.236722     129.313332       0.000000
    156.160494     217.785557     119.707269       0.000000
    184.705172     222.423050     117.749892       0.000000
    175.910041     228.741654     118.223253       0.000000
    166.971933     256.082677     119.980183       0.000000
    153.071725     239.295256     117.304633       0.000000
    150.519906     273.505856     116.984032       0.000000
    158.434619     268.956742     121.153357       0.000000
    176.089207     279.655039     128.524882       0.000000
    167.441099     285.802729     125.701609       0.000000
    176.593376     288.858332     128.112128       0.000000
    178.990619     302.604317     124.898407       0.000000
    164.371346     318.967274     122.019250       0.000000
    168.572692     340.083871     126.735523       0.000000
    174.852337     348.980582     131.831608       0.000000
    165.055066     361.524344     136.845239       0.000000
    176.372449     369.250960     135.943463       0.000000
    164.594172     374.882928     136.938077       0.000000
    163.673119     384.137418     135.589884       0.000000
    159.130814     393.208248     132.215776       0.000000
    156.318093     402.519920     128.394220       0.000000
    159.463536     411.374539     125.633989       0.000000
    179.239881     404.926647     127.154685       0.000000
    160.384859     419.572330     121.957571       0.000000
    157.802775     438.246399     116.709746       0.000000
    182.974591     460.158280     119.227656       0.000000
    153.872297     467.765685     117.491685       0.000000
    192.674059     455.102470     119.485047       0.000000
    179.360315     480.079571     119.507267       0.000000
    167.710984     489.723686     123.106129       0.000000
    170.000000     500.000000     124.725549       0.000000
    180.000000      10.000000     125.744933       0.000000
    167.980663      21.135190     126.694486       0.000000
    177.561615      18.679397     126.609425       0.000000
    180.928906      27.431598     126.498196       0.000000
    186.005333      47.499713     123.505144       0.000000
    179.373034      59.203603     122.868474       0.000000
    178.631803      90.382841     126.751928       0.000000
    186.857967      95.104112     126.834699       0.000000
    167.084406     110.848630     131.545527       0.000000
    178.176351     110.324516     130.746405       0.000000
    190.237510     114.970295     130.401723       0.000000
    188.806227     127.430195     132.904830       0.000000
    179.864169     127.961567     134.202808       0.000000
    180.563965     145.291044     133.386872       0.000000
    176.987546     155.472850     131.730042       0.000000
    167.426287     164.274237     133.493727       0.000000
    175.188975     186.265747     128.418058       0.000000
    184.305195     192.124144     126.924912       0.000000
    172.844011     211.247443     123.631535       0.000000
    174.132409     220.058145     120.105132       0.000000
    185.540186     211.928065     120.022578       0.000000
    194.128164     209.501016     117.965986       0.000000
    197.526715     233.899617     116.076390       0.000000
    179.763874     240.218057     117.689520       0.000000
    170.632036     263.540000     123.620524       0.000000
    158.322024     258.750026     118.826132       0.000000
    180.872381     271.420627     126.879808       0.000000
    185.621354     285.103118     129.811374       0.000000
    184.786040     295.143437     127.416766       0.000000
    190.584939     303.862586     125.978438       0.000000
    183.056916     312.242524     122.738429       0.000000
    173.353949     319.100888     120.874097       0.000000
    172.361389     332.368448     123.412873       0.000000
    179.056658     342.046137     126.464790       0.000000
    184.284266     350.101594     129.213033       0.000000
    184.438288     365.575482     132.745595       0.000000
    186.494715     374.342436     132.082429       0.000000
    173.159467     378.369605     136.072955       0.000000
    167.446225     401.963722     131.710824       0.000000
    171.786052     392.818762     133.368161       0.000000
    191.943222     392.941128     129.543265       0.000000
    188.170378     402.694864     127.837095       0.000000
    170.076381     419.695936     122.405369       0.000000
    171.303317     429.437975     119.329575       0.000000
    163.089637     461.546247     116.589935       0.000000
    188.220373     445.932087     119.857146       0.000000
    192.737697     468.676438     120.291671       0.000000
    180.640435     470.165130     119.090551       0.000000
    177.810665     488.578720     122.354732       0.000000
    180.000000     500.000000     124.442414       0.000000
    190.000000      10.000000     125.171210       0.000000
    188.416324      19.237572     125.622862       0.000000
    201.698121      36.977531     122.413559       0.000000
    194.961071      49.615768     121.412749       0.000000
    188.698502      66.431091     122.043530       0.000000
    188.344263      57.270655     121.957387       0.000000
    185.626448      78.290925     125.418456       0.000000
    190.780058      86.450060     125.206394       0.000000
    195.923961      96.500584     126.507985       0.000000
    174.679149     100.054912     127.772640       0.000000
    185.986368     104.471758     128.533708       0.000000
    197.383692     131.040432     132.432830       0.000000
    184.672202     136.579812     134.681122       0.000000
    196.307890     157.288402     129.828640       0.000000
    190.801132     175.903041     127.100062       0.000000
    201.190616     175.818277     123.732337       0.000000
    201.992403     186.023767     122.214123       0.000000
    184.401909     182.878044     127.955443       0.000000
    193.195937     184.831255     125.572689       0.000000
    194.617244     193.628479     123.254041       0.000000
    179.136617     204.873266     124.629308       0.000000
    202.336618     197.202928     118.890387       0.000000
    199.650032     216.539977     114.584594       0.000000
    185.839997     249.785634     120.830835       0.000000
    196.646768     251.491925     121.892515       0.000000
    179.625934     262.078834     124.496757       0.000000
    206.037846     270.173160     128.764039       0.000000
    199.507470     276.788407     129.675317       0.000000
    207.743828     295.582169     131.648488       0.000000
    196.386321     286.078443     131.167623       0.000000
    181.535333     324.333884     120.858037       0.000000
    191.616108     330.205214     122.629621       0.000000
    182.727181     333.338264     123.366337       0.000000
    190.051612     341.062068     123.621492       0.000000
    198.698049     349.033672     124.155537       0.000000
    175.897589     358.845439     135.604507       0.000000
    194.215831     366.205838     129.161603       0.000000
    191.874597     382.408048     129.839158       0.000000
    179.134977     385.633515     133.820320       0.000000
    181.798693     395.931549     129.415525       0.000000
    196.327205     408.127781     125.327704       0.000000
    179.141386     418.711586     123.762829       0.000000
    185.086861     411.795718     124.756480       0.000000
    182.827355     427.226558     123.030816       0.000000
    177.458903     446.242819     118.358849       0.000000
    199.445874     448.642698     119.074674       0.000000
    199.043121     479.072139     120.967027       0.000000
    188.427772     479.704149     120.726261       0.000000
    189.796434     490.964158     123.331637       0.000000
    190.000000     500.000000     124.280826       0.000000
    200.000000      10.000000     124.166660       0.000000
    203.167727      19.552437     124.191978       0.000000
    193.062014      40.749392     123.174664       0.000000
    196.923545      26.522348     124.134891       0.000000
    197.864702      58.316244     121.529983       0.000000
    179.574181      69.844560     125.650860       0.000000
    194.847501      77.927175     122.990688       0.000000
    209.206584      90.501628     124.825358       0.000000
    200.628485      85.018961     124.548526       0.000000
    207.192752     100.179046     127.064326       0.000000
    198.049077     108.791225     128.426348       0.000000
    207.650663     125.436756     130.698209       0.000000
    191.686214     142.391431     134.777786       0.000000
    187.206997     152.683466     131.523478       0.000000
    199.357494     147.460359     132.851461       0.000000
    209.351217     163.198993     126.662534       0.000000
    176.588913     166.234844     130.841376       0.000000
    217.552817     175.879852     119.154036       0.000000
    220.984142     192.709099     111.991808       0.000000
    209.579580     182.382625     118.733494       0.000000
    211.824243     201.619152     113.595577       0.000000
    189.405177     202.264623     122.544457       0.000000
    204.659738     206.849928     115.777435       0.000000
    187.700543     231.180487     115.709751       0.000000
    204.771710     242.783744     119.032299       0.000000
    189.690870     240.199075     117.806603       0.000000
    175.661323     250.283352     120.273868       0.000000
    190.362158     277.084125     129.299034       0.000000
    193.007464     267.805350     127.570913       0.000000
    196.511078     297.654423     129.494166       0.000000
    191.560497     320.231358     121.311571       0.000000
    202.041020     327.115519     122.324177       0.000000
    211.644059     329.381888     121.746889       0.000000
    199.950890     339.198967     122.897833       0.000000
    207.569617     347.965038     122.869695       0.000000
    189.540223     358.239962     129.244669       0.000000
    206.230913     379.377182     126.387555       0.000000
    200.044200     386.052779     128.650039       0.000000
    199.753310     373.330002     128.269314       0.000000
    206.791589     402.404797     127.346018       0.000000
    198.339496     399.342258     126.890774       0.000000
    197.747377     416.483698     122.199884       0.000000
    197.943049     427.573137     121.335659       0.000000
    189.388751     420.213283     122.880917       0.000000
    186.845253     435.864060     121.101239       0.000000
    200.364609     462.150731     120.034296       0.000000
    205.869295     471.971086     120.557868       0.000000
    207.604259     482.165553     121.091298       0.000000
    199.835227     488.240625     123.256799       0.000000
    200.000000     500.000000     124.419839       0.000000
    210.000000      10.000000     125.002875       0.000000
    214.238822      17.848142     123.383490       0.000000
    220.075113      36.117997     117.909167       0.000000
    207.774837      28.668158     122.314562       0.000000
    207.879190      56.295398     120.778917       0.000000
    198.694669      68.037761     120.853639       0.000000
    225.906201      65.752501     118.079540       0.000000
    204.106384      76.731111     123.163911       0.000000
    229.549591      85.032579     119.639796       0.000000
    216.277048      97.120297     123.689593       0.000000
    211.433084     109.094216     128.099760       0.000000
    205.873446     115.997356     130.755452       0.000000
    198.375315     122.107102     131.481527       0.000000
    203.314413     138.832177     132.260713       0.000000
    214.180678     144.913206     128.423405       0.000000
    187.590307     163.667544     129.554096       0.000000
    209.310919     171.442913     122.941291       0.000000
    218.599744     165.377135     122.686873       0.000000
    230.982978     192.488568     111.460164       0.000000
    209.687547     192.572792     116.427559       0.000000
    227.192612     212.923067     110.354886       0.000000
    222.290266     204.031748     111.307163       0.000000
    211.699239     220.971449     113.036926       0.000000
    203.847380     227.143564     114.086383       0.000000
    215.686312     246.566744     122.139051       0.000000
    206.535034     250.696467     123.085129       0.000000
    189.188824     259.150269     125.492001       0.000000
    214.503694     274.915507     132.103594       0.000000
    213.629910     288.468935     132.354045       0.000000
    203.088048     304.695019     128.720963       0.000000
    196.479787     311.364311     124.342034       0.000000
    204.222540     318.332236     123.615414       0.000000
    222.589417     318.456103     122.292669       0.000000
    208.818454     338.364892     121.293680       0.000000
    216.251080     351.905080     122.249642       0.000000
    198.407945     358.286286     127.292200       0.000000
    216.282281     383.404710     124.751334       0.000000
    207.232302     391.581674     127.213916       0.000000
    233.629844     390.340671     124.942769       0.000000
    219.697333     395.152777     125.477894       0.000000
    208.018343     411.866192     123.871833       0.000000
    220.190300     416.964822     122.693136       0.000000
    195.457312     439.169545     119.203286       0.000000
    207.397738     444.439246     118.293957       0.000000
    216.788465     448.647203     117.948750       0.000000
    206.361607     455.096900     118.803338       0.000000
    214.232459     462.860646     116.695754       0.000000
    217.740604     482.328500     120.505068       0.000000
    208.399639     491.063524     123.494106       0.000000
    210.000000     500.000000     124.422292       0.000000
    220.000000      10.000000     123.811939       0.000000
    224.064051      19.521651     121.170061       0.000000
    217.572572      27.062384     120.571084       0.000000
    210.309161      40.013035     120.993019       0.000000
    203.940143      47.282358     120.838911       0.000000
    207.820314      65.534861     120.911619       0.000000
    233.822730      61.231420     116.423970       0.000000
    216.034728      68.737159     118.770350       0.000000
    213.421732      79.538963     121.309749       0.000000
    221.675621      88.918404     121.934991       0.000000
    221.793426     110.818395     127.738437       0.000000
    216.933286     118.791781     130.266380       0.000000
    211.266182     133.923710     131.229134       0.000000
    220.853424     132.332450     128.625589       0.000000
    223.466941     146.240997     126.537208       0.000000
    207.907162     152.434222     130.495959       0.000000
    199.212544     167.400403     127.000993       0.000000
    218.406587     184.124311     115.107424       0.000000
    228.113841     183.166938     112.857387       0.000000
    231.319155     202.988961     110.310546       0.000000
    220.950698     220.275407     113.725193       0.000000
    214.055239     212.206816     112.729777       0.000000
    216.821586     228.973573     114.997943       0.000000
    212.299811     236.263406     117.855681       0.000000
    218.211133     258.723368     125.286790       0.000000
    229.510023     262.749136     126.589882       0.000000
    200.688372     260.643460     124.752453       0.000000
    207.379338     281.541495     132.463054       0.000000
    222.813442     280.930553     132.216647       0.000000
    209.640432     311.240453     127.077020       0.000000
    216.697374     298.424707     130.188038       0.000000
    233.328060     321.548233     122.079764       0.000000
    213.603486     319.108623     123.714863       0.000000
    222.912988     328.254210     120.022947       0.000000
    218.991670     338.816492     119.539138       0.000000
    208.300708     357.109521     125.025353       0.000000
    207.388920     368.974487     125.646399       0.000000
    224.578835     387.382902     125.045551       0.000000
    228.573981     398.980827     125.185098       0.000000
    217.737529     407.747703     123.881346       0.000000
    207.897222     424.955579     122.011243       0.000000
    204.255248     435.851357     119.097052       0.000000
    216.941590     427.525359     119.940978       0.000000
    223.197157     437.590896     115.793252       0.000000
    213.045357     437.406199     117.462638       0.000000
    224.518924     456.450944     116.833030       0.000000
    216.386679     473.167889     119.358228       0.000000
    225.396288     475.422443     119.755363       0.000000
    218.187556     491.200992     122.386307       0.000000
    220.000000     500.000000     123.759111       0.000000
    230.000000      10.000000     122.461331       0.000000
    234.690640      18.616105     120.851553       0.000000
    230.258284      37.107490     116.617299       0.000000
    218.216777      45.391971     118.152563       0.000000
    228.278769      52.884255     116.500377       0.000000
    220.254639      56.903457     117.678348       0.000000
    242.733032      65.652316     116.236423       0.000000
    222.804026      77.715597     119.113572       0.000000
    232.781187      72.106553     117.440488       0.000000
    224.245953     101.874989     124.665126       0.000000
    233.625936     102.297150     126.353715       0.000000
    236.013856     126.443705     129.390685       0.000000
    226.417084     124.989588     130.211229       0.000000
    231.244806     134.141701     128.320477       0.000000
    217.316595     154.110591     126.835572       0.000000
    226.171639     159.796147     124.452708       0.000000
    230.605429     172.866966     117.905364       0.000000
    247.937584     166.738218     117.964231       0.000000
    249.700645     189.448225     113.466304       0.000000
    239.023351     183.269152     112.083046       0.000000
    241.820121     207.716556     110.294836       0.000000
    242.999170     221.371586     111.568865       0.000000
    224.980964     244.057508     120.416672       0.000000
    227.183348     252.863212     122.415293       0.000000
    236.389979     251.694856     121.451733       0.000000
    238.821566     260.734833     125.872553       0.000000
    231.504045     271.131642     129.524478       0.000000
    209.697414     262.111612     126.064140       0.000000
    232.671125     293.089123     127.324946       0.000000
    227.303998     302.577973     126.619303       0.000000
    219.808228     309.339459     125.889518       0.000000
    250.234637     333.439175     119.204575       0.000000
    237.191636     329.700076     120.256978       0.000000
    228.005154     335.885579     119.299342       0.000000
    217.497173     364.497993     124.009707       0.000000
    243.471515     362.585677     122.428455       0.000000
    231.821867     361.751286     122.677409       0.000000
    217.997169     373.879289     123.704079       0.000000
    228.463956     378.939975     124.225808       0.000000
    243.294261     390.682068     125.308648       0.000000
    238.295135     413.230303     124.773685       0.000000
    245.047648     419.489231     125.033765       0.000000
    229.430984     424.092166     119.413152       0.000000
    232.413126     436.548094     117.780761       0.000000
    225.705861     446.783068     116.679510       0.000000
    244.660760     460.287126     118.197249       0.000000
    227.575173     466.185466     117.924879       0.000000
    233.816601     482.755610     119.415713       0.000000
    227.157789     489.067285     120.580463       0.000000
    230.000000     500.000000     123.103165       0.000000
    240.000000      10.000000     121.037556       0.000000
    232.601685      27.448765     118.628653       0.000000
    233.455833      45.575647     115.489067       0.000000
    248.301320      46.534175     116.055389       0.000000
    240.967592      39.292765     116.613125       0.000000
    241.668663      53.177006     114.995514       0.000000
    255.888153      64.919377     114.881986       0.000000
    245.317204      74.335362     114.244407       0.000000
    246.539152      88.237076     119.273556       0.000000
    238.761856      81.729316     118.188363       0.000000
    230.380384      93.969118     123.158153       0.000000
    232.244659     114.711110     129.752391       0.000000
    235.900270     144.867968     124.877366       0.000000
    254.221805     138.151626     128.535067       0.000000
    245.433819     145.416979     124.557148       0.000000
    233.879742     155.174649     122.759547       0.000000
    241.707486     174.767844     115.377586       0.000000
    250.341594     177.568072     114.096181       0.000000
    267.352989     180.943908     115.176792       0.000000
    242.267695     195.420754     112.113442       0.000000
    236.105346     214.917121     110.915938       0.000000
    228.889274     224.523014     113.290442       0.000000
    224.941391     233.449127     115.645386       0.000000
    233.659586     240.615232     117.293478       0.000000
    243.824417     245.167409     119.523789       0.000000
    248.070705     268.811636     128.372010       0.000000
    241.109216     274.682448     128.914482       0.000000
    222.328728     268.394378     130.687169       0.000000
    222.370557     291.247377     129.752730       0.000000
    230.955248     312.240767     122.632233       0.000000
    239.859294     300.566715     125.220638       0.000000
    240.241965     315.086315     122.980388       0.000000
    234.752870     345.332085     121.616600       0.000000
    224.926814     346.447590     120.879733       0.000000
    224.516030     355.442483     121.615307       0.000000
    254.628850     367.269333     125.977205       0.000000
    262.823788     359.992514     125.096297       0.000000
    226.793482     369.337015     124.245960       0.000000
    240.557147     381.431867     125.140400       0.000000
    229.223263     411.620193     125.024457       0.000000
    238.195305     402.654291     125.531543       0.000000
    253.358446     416.322109     127.069750       0.000000
    239.922034     426.515803     120.581625       0.000000
    235.490614     445.501189     117.244320       0.000000
    234.094937     454.767306     116.105451       0.000000
    244.394658     449.516743     118.357380       0.000000
    237.162342     469.601738     119.408895       0.000000
    245.584487     481.024249     119.708331       0.000000
    239.359234     489.833389     121.436729       0.000000
    240.000000     500.000000     122.279299       0.000000
    250.000000      10.000000     121.242523       0.000000
    244.607630      20.659890     120.343748       0.000000
    255.664880      28.378266     118.749760       0.000000
    245.525031      31.447462     118.281625       0.000000
    258.888068      73.911922     115.927558       0.000000
    251.452141      56.946822     114.347823       0.000000
    264.787624      80.095890     120.278211       0.000000
    254.049116      94.875431     122.374410       0.000000
    264.446650      98.673976     126.531467       0.000000
    239.695450      94.610438     122.207938       0.000000
    240.494982     109.229266     128.612408       0.000000
    243.064159     136.807443     126.984627       0.000000
    244.873023     128.058640     128.967456       0.000000
    264.021709     135.753278     130.032068       0.000000
    256.599758     148.385814     124.206156       0.000000
    246.863190     155.345211     120.543593       0.000000
    236.504371     164.999568     118.338148       0.000000
    257.378537     161.773776     118.631560       0.000000
    257.470832     184.683283     113.892894       0.000000
    260.468500     194.393931     114.476044       0.000000
    251.205650     198.773471     113.022095       0.000000
    249.299636     213.081448     111.564457       0.000000
    236.070592     230.394682     112.570329       0.000000
    244.713155     235.280846     115.158999       0.000000
    249.934966     256.204881     124.615263       0.000000
    258.031013     261.984125     125.438726       0.000000
    244.652427     283.468018     128.358282       0.000000
    232.061626     282.512089     129.297378       0.000000
    246.576488     292.658465     126.582564       0.000000
    248.483285     304.423841     124.059088       0.000000
    256.982248     301.039793     125.464564       0.000000
    253.289876     313.333512     122.727616       0.000000
    259.128311     330.637362     120.276869       0.000000
    241.613359     337.595024     118.971608       0.000000
    238.360091     354.627700     121.809454       0.000000
    251.712954     358.471929     122.898638       0.000000
    264.375651     373.657113     130.460115       0.000000
    247.106869     372.135753     124.983504       0.000000
    258.183497     390.692197     129.864908       0.000000
    247.784339     408.834617     126.954703       0.000000
    256.632917     407.610299     128.782173       0.000000
    251.638522     426.266032     125.760825       0.000000
    245.472436     440.785923     120.410320       0.000000
    256.282538     445.972673     121.887890       0.000000
    253.611304     454.708162     119.492224       0.000000
    255.694841     465.455849     118.155407       0.000000
    246.713710     471.217488     118.507734       0.000000
    257.440364     476.721592     118.656501       0.000000
    250.773821     490.525101     120.565961       0.000000
    250.000000     500.000000     121.627500       0.000000
    260.000000      10.000000     122.321548       0.000000
    256.132631      18.165616     121.157997       0.000000
    253.017077      37.066987     117.342252       0.000000
    262.623292      48.769973     119.179733       0.000000
    265.084109      57.680591     118.753098       0.000000
    268.265441      66.806346     120.475056       0.000000
    254.744473      82.982425     116.997824       0.000000
    262.866322      89.380100     121.410506       0.000000
    253.047935     107.599530     129.452875       0.000000
    245.111331     101.335153     126.463573       0.000000
    251.273035     116.979035     131.054027       0.000000
    260.175713     112.903089     131.372336       0.000000
    242.321417     117.894464     130.320283       0.000000
    263.638068     126.395647     131.001879       0.000000
    268.844584     157.540304     124.879885       0.000000
    257.784227     172.967455     116.297738       0.000000
    265.970141     166.719968     119.428485       0.000000
    287.965750     180.798063     119.889890       0.000000
    275.660977     184.543061     115.381757       0.000000
    259.897536     205.065570     114.261347       0.000000
    258.152520     223.283358     114.646386       0.000000
    259.689295     214.436397     114.029246       0.000000
    255.874581     233.639763     117.624964       0.000000
    263.693476     240.137002     119.447128       0.000000
    272.932512     257.197923     124.426222       0.000000
    255.368356     243.777924     120.617568       0.000000
    262.554689     253.260240     124.107954       0.000000
    256.157823     291.889983     126.865393       0.000000
    264.621301     281.963542     127.112085       0.000000
    264.566742     295.619793     126.277639       0.000000
    262.904855     309.809850     123.130729       0.000000
    247.029992     323.443886     121.463894       0.000000
    267.515442     318.216054     121.378744       0.000000
    255.480362     340.746019     119.854874       0.000000
    247.141274     350.649951     121.491631       0.000000
    256.989908     350.488330     120.664241       0.000000
    258.312873     380.207968     128.223279       0.000000
    235.805161     372.541362     124.836153       0.000000
    266.581092     383.752775     131.167424       0.000000
    249.573020     381.250116     125.646308       0.000000
    250.955717     395.688552     127.515526       0.000000
    261.300067     420.260451     128.982088       0.000000
    252.299475     435.427147     123.425981       0.000000
    260.902875     438.207475     124.733003       0.000000
    266.730421     450.907560     121.999119       0.000000
    261.744830     458.802198     121.310452       0.000000
    266.474523     467.039705     120.997336       0.000000
    266.341355     477.468410     120.916675       0.000000
    260.280831     489.179014     122.477217       0.000000
    260.000000     500.000000     122.928230       0.000000
    270.000000      10.000000     124.048935       0.000000
    274.605045      21.090074     123.690160       0.000000
    265.604730      18.576238     122.669453       0.000000
    268.186536      28.995268     121.950813       0.000000
    262.103354      39.704837     118.963547       0.000000
    272.104956      51.048897     121.278919       0.000000
    276.053860      61.372662     121.381807       0.000000
    274.253342      75.455027     122.333888       0.000000
    272.763664      95.755864     128.972868       0.000000
    285.093121     101.765513     133.258882       0.000000
    274.688111     124.246188     133.290316       0.000000
    274.551067     136.138636     132.394541       0.000000
    282.747106     128.115652     134.397896       0.000000
    254.401176     126.631871     129.692453       0.000000
    290.440919     132.675833     135.875648       0.000000
    274.960126     165.449667     122.265508       0.000000
    284.322921     169.333080     122.452189       0.000000
    282.759955     199.544799     111.813099       0.000000
    270.317411     202.752707     113.714360       0.000000
    272.401043     192.947822     114.148250       0.000000
    269.226884     211.652802     115.738802       0.000000
    249.755850     227.004167     113.876320       0.000000
    270.895474     222.349224     116.101326       0.000000
    264.456552     230.549357     116.627538       0.000000
    285.466391     257.641877     125.591262       0.000000
    267.505081     265.242950     125.694262       0.000000
    270.853901     246.678617     121.034265       0.000000
    253.808853     280.863045     128.113119       0.000000
    283.756399     299.447106     123.504346       0.000000
    273.281173     298.510104     124.685049       0.000000
    290.278986     309.870188     120.278287       0.000000
    281.369063     310.255509     121.613335       0.000000
    258.461049     321.226684     121.166944       0.000000
    266.510249     349.784003     121.898486       0.000000
    274.911397     355.549148     123.951589       0.000000
    269.930616     365.534711     129.562226       0.000000
    273.387014     373.647195     132.013763       0.000000
    276.404987     382.589853     133.001422       0.000000
    277.771711     395.420870     134.289531       0.000000
    267.987803     392.705201     131.521987       0.000000
    264.377481     401.571333     130.716826       0.000000
    267.320975     411.868909     132.056529       0.000000
    270.180985     420.456368     131.948223       0.000000
    260.381540     429.214172     128.193086       0.000000
    270.420198     432.682048     127.346066       0.000000
    269.766590     442.276181     125.194598       0.000000
    275.545993     460.010654     124.328329       0.000000
    280.130401     480.424193     125.337692       0.000000
    269.988388     486.212394     123.569869       0.000000
    270.000000     500.000000     124.495673       0.000000
    280.000000      10.000000     124.618220       0.000000
    284.562823      21.027350     124.623396       0.000000
    277.538049      30.679323     124.018816       0.000000
    272.985545      38.373171     121.911165       0.000000
    282.144124      50.361196     122.706573       0.000000
    286.344229      61.224885     124.048228       0.000000
    282.384127      69.792515     123.429342       0.000000
    283.038210      80.242338     125.853226       0.000000
    272.680991      84.182492     124.275133       0.000000
    288.928156      92.533360     133.189187       0.000000
    267.298793     106.780755     130.154708       0.000000
    269.023452     115.504586     132.849154       0.000000
    288.857885     152.453819     131.246405       0.000000
    266.314458     147.171396     127.126116       0.000000
    283.489534     143.196361     132.999350       0.000000
    275.420447     148.031102     129.903242       0.000000
    274.355436     173.967979     118.053300       0.000000
    291.561908     163.238706     126.888794       0.000000
    287.881522     215.316355     111.672681       0.000000
    279.511269     210.882068     114.200981       0.000000
    291.505832     223.423694     114.324197       0.000000
    282.498557     223.003016     115.837429       0.000000
    281.531110     232.986417     117.701131       0.000000
    273.204780     236.694873     117.586832       0.000000
    280.714649     245.658774     122.455537       0.000000
    285.578468     270.831651     127.123482       0.000000
    259.704548     271.128071     126.906243       0.000000
    273.780355     275.872162     126.407919       0.000000
    272.206651     288.333863     125.270242       0.000000
    283.251186     289.194541     125.104295       0.000000
    271.885898     310.343501     122.839417       0.000000
    267.929799     327.680874     120.026962       0.000000
    276.850989     330.083319     119.300436       0.000000
    264.409093     339.298869     119.654809       0.000000
    280.340658     348.612467     121.935153       0.000000
    282.293084     364.012958     129.363901       0.000000
    284.692673     373.985187     132.100527       0.000000
    286.074041     385.090406     133.348388       0.000000
    285.968024     405.699838     133.557862       0.000000
    272.905241     404.551324     132.709375       0.000000
    277.507076     412.915799     133.062323       0.000000
    290.063086     426.164948     128.715425       0.000000
    277.062832     426.534674     129.914009       0.000000
    293.483296     438.636857     126.920274       0.000000
    279.855212     441.857157     126.845600       0.000000
    275.858041     450.287918     124.741582       0.000000
    274.487460     470.698528     123.275475       0.000000
    283.436809     471.519599     125.203882       0.000000
    279.890784     490.067700     125.766851       0.000000
    280.000000     500.000000     125.895329       0.000000
    290.000000      10.000000     126.901073       0.000000
    294.932171      20.758151     127.290503       0.000000
    288.920029      31.631796     125.102642       0.000000
    282.298041      39.702314     123.425542       0.000000
    291.568418      43.595776     125.114335       0.000000
    294.278511      53.238450     125.282916       0.000000
    297.659476      63.959143     124.894000       0.000000
    292.213222      84.054049     128.502608       0.000000
    279.982206      88.338041     128.496826       0.000000
    300.084328      90.776134     132.477440       0.000000
    296.144193     102.516642     135.315314       0.000000
    296.478685     114.663554     136.717059       0.000000
    276.574306     106.031452     132.106058       0.000000
    278.423634     114.749490     133.471992       0.000000
    301.574722     146.110943     134.535788       0.000000
    298.415777     157.119748     130.817578       0.000000
    280.443361     157.193730     127.649847       0.000000
