    233.647881     291.594527     128.136326       0.000000
    228.028022     299.795156     126.489058       0.000000
    222.496948     308.461179     125.021867       0.000000
    249.337919     332.811247     120.074590       0.000000
    238.825469     329.396799     120.380518       0.000000
    232.510380     336.198171     120.130202       0.000000
    216.146431     366.434740     121.684524       0.000000
    244.366345     361.698859     122.194017       0.000000
    234.024307     363.774042     121.793767       0.000000
    217.048006     378.906556     122.816820       0.000000
    229.365807     376.618538     121.699714       0.000000
    239.878449     393.454511     124.594167       0.000000
    235.783775     416.864652     123.594017       0.000000
    244.712406     416.066398     125.063214       0.000000
    228.553966     425.514365     120.378225       0.000000
    234.000471     432.745495     117.900959       0.000000
    229.655304     449.067876     116.164314       0.000000
    244.853657     459.900347     116.171164       0.000000
    225.789835     466.668534     118.184334       0.000000
    236.374713     480.915532     119.744627       0.000000
    228.972786     490.580464     123.416108       0.000000
    230.000000     500.000000     123.447423       0.000000
    240.000000      10.000000     121.783089       0.000000
    231.314154      25.847608     121.118421       0.000000
    233.387705      45.933322     116.254864       0.000000
    250.139885      45.209218     116.694525       0.000000
    241.409337      41.614878     116.544272       0.000000
    241.832618      55.781104     116.065833       0.000000
    259.000853      64.688571     117.826869       0.000000
    243.072221      75.685469     116.874326       0.000000
    246.476012      89.732088     120.439202       0.000000
    239.155842      83.568588     119.295526       0.000000
    228.337154      92.791463     122.442802       0.000000
    230.461836     113.971003     128.133958       0.000000
    237.220524     144.075328     127.391756       0.000000
    252.199485     140.564185     127.330898       0.000000
    245.887112     148.471572     126.262116       0.000000
    237.300486     153.360932     125.769938       0.000000
    241.152389     174.695244     115.555068       0.000000
    250.378989     181.554082     114.232063       0.000000
    268.560988     183.534679     116.542144       0.000000
    242.615263     197.417155     111.065738       0.000000
    232.065608     213.110300     109.916990       0.000000
    227.173649     224.483357     113.108202       0.000000
    225.707470     236.685649     117.101209       0.000000
    234.217809     241.430301     116.916031       0.000000
    243.858599     250.736565     121.193169       0.000000
    251.956182     267.499842     129.598124       0.000000
    242.276114     273.858315     128.376486       0.000000
    221.014377     267.159020     128.120335       0.000000
    223.864831     291.710950     129.065852       0.000000
    232.749575     311.804028     124.366260       0.000000
    237.992879     300.958803     126.346993       0.000000
    241.813845     315.529580     122.381844       0.000000
    235.402522     345.830370     120.628062       0.000000
    225.125096     346.850041     121.204588       0.000000
    224.864323     356.283713     121.857932       0.000000
    258.066484     368.574107     124.550155       0.000000
    264.558907     357.650621     124.905156       0.000000
    225.114646     368.106467     121.384538       0.000000
    236.251248     382.724219     122.833978       0.000000
    227.292807     413.878103     122.499507       0.000000
    235.478029     403.643732     123.967612       0.000000
    254.732479     417.039470     128.263852       0.000000
    242.535434     430.392124     121.915614       0.000000
    235.397999     441.844322     115.279891       0.000000
    235.884168     461.657514     116.462263       0.000000
    241.426139     450.326878     116.998701       0.000000
    234.719794     470.920282     117.859815       0.000000
    248.162635     479.097269     118.890246       0.000000
    242.193344     489.572143     121.759254       0.000000
    240.000000     500.000000     122.516886       0.000000
    250.000000      10.000000     120.569420       0.000000
    246.280043      20.351997     119.548395       0.000000
    256.386002      26.894652     117.433908       0.000000
    243.349647      32.744589     118.685027       0.000000
    251.501614      71.468048     117.240226       0.000000
    252.026738      55.347444     116.591291       0.000000
    264.855380      77.301575     121.581940       0.000000
    256.278919      95.799931     122.798042       0.000000
    268.168583      95.162902     128.393572       0.000000
    238.109155      98.254720     122.665872       0.000000
    244.042873     110.498492     126.475077       0.000000
    241.321391     136.033180     128.282032       0.000000
    244.519873     127.254413     128.823563       0.000000
    263.353890     133.260617     130.608430       0.000000
    256.796678     150.899303     125.745212       0.000000
    247.794525     159.779241     123.676559       0.000000
    238.423878     163.138516     121.277780       0.000000
    257.785701     163.683474     123.104197       0.000000
    259.311319     179.036459     116.500296       0.000000
    259.979981     193.146062     114.419752       0.000000
    251.766869     203.051953     111.191082       0.000000
    251.003634     217.720152     112.400221       0.000000
    237.493789     232.092899     114.662331       0.000000
    246.739325     235.971923     117.802291       0.000000
    249.702577     256.565664     125.259924       0.000000
    260.990097     264.710049     128.234981       0.000000
    242.740957     285.770350     127.566673       0.000000
    230.386251     283.096283     128.897201       0.000000
    245.167233     294.282720     125.539157       0.000000
    245.982777     305.644059     125.660323       0.000000
    254.647619     301.854917     124.731744       0.000000
    250.871965     315.039625     122.784477       0.000000
    258.950538     333.426844     117.781873       0.000000
    244.406360     340.377787     119.489445       0.000000
    238.123677     354.420631     120.850968       0.000000
    253.776154     360.068216     122.491865       0.000000
    266.659679     372.490500     128.830797       0.000000
    249.253839     374.487979     124.207502       0.000000
    256.998602     388.512661     129.034177       0.000000
    244.098455     405.638257     126.227517       0.000000
    252.986331     408.165499     129.317613       0.000000
    251.593260     426.986582     124.290973       0.000000
    245.443897     441.443389     118.952177       0.000000
    256.014587     444.864368     120.840778       0.000000
    251.117673     452.135707     117.667971       0.000000
    255.118094     468.590460     119.854486       0.000000
    245.279112     469.842090     117.766728       0.000000
    256.811243     477.519996     120.910744       0.000000
    251.645923     489.971295     121.495551       0.000000
    250.000000     500.000000     121.697254       0.000000
    260.000000      10.000000     120.769796       0.000000
    255.310805      17.710242     118.600321       0.000000
    254.303809      36.169960     117.554576       0.000000
    263.777237      47.292119     120.271975       0.000000
    264.179343      56.582074     119.798362       0.000000
    266.816940      67.889679     121.598610       0.000000
    252.116378      81.959860     118.490369       0.000000
    263.834093      88.586246     122.998647       0.000000
    255.745595     108.936159     126.773244       0.000000
    248.469477     102.800741     123.568000       0.000000
    250.690192     117.710155     128.873844       0.000000
    262.708642     114.362170     130.499774       0.000000
    239.886013     118.585012     128.086220       0.000000
    264.176832     124.050501     132.206151       0.000000
    267.652629     158.828299     125.298018       0.000000
    254.840630     171.136102     118.982648       0.000000
    265.834115     168.726623     121.976342       0.000000
    287.329363     179.933548     119.369569       0.000000
    277.516615     184.459034     117.277011       0.000000
    260.509679     202.127245     113.376447       0.000000
    259.262482     224.053208     115.092454       0.000000
    258.650165     212.420599     114.063928       0.000000
    255.832057     235.364894     118.894357       0.000000
    263.186527     242.736955     121.502436       0.000000
    270.444067     257.106482     126.249949       0.000000
    252.327023     244.413021     121.102336       0.000000
    259.991887     255.112091     126.089879       0.000000
    255.038182     292.174193     126.747737       0.000000
    258.884922     284.090148     128.721115       0.000000
    263.175581     296.897354     123.242041       0.000000
    259.075566     310.257989     121.957940       0.000000
    246.547692     323.369858     121.425376       0.000000
    267.174140     319.713286     118.806134       0.000000
    253.505921     340.949151     119.641463       0.000000
    248.274728     353.164620     120.352287       0.000000
    257.022333     349.165876     121.761748       0.000000
    257.790587     379.307875     128.544149       0.000000
    238.519777     373.356389     122.784420       0.000000
    266.820881     381.955303     131.936400       0.000000
    245.615115     382.909296     125.215294       0.000000
    249.675309     397.333148     128.466815       0.000000
    264.437150     418.945748     129.294657       0.000000
    252.569116     435.526930     121.412510       0.000000
    261.863587     436.409909     123.724183       0.000000
    266.948158     455.029940     122.336154       0.000000
    257.826236     459.804376     119.447788       0.000000
    264.222030     467.221711     121.948706       0.000000
    266.065302     478.338516     122.914024       0.000000
    261.401317     490.428504     121.911599       0.000000
    260.000000     500.000000     121.397021       0.000000
    270.000000      10.000000     122.689336       0.000000
    275.220130      18.588217     121.779434       0.000000
    265.151649      19.254452     120.492930       0.000000
    270.439297      28.123226     120.339225       0.000000
    263.435956      37.873706     120.048532       0.000000
    274.864753      48.283033     121.511807       0.000000
    272.601626      60.342207     121.716097       0.000000
    273.338913      74.518394     123.574943       0.000000
    276.621921      95.183003     132.231615       0.000000
    282.342647     101.977516     135.826237       0.000000
    272.048181     128.373425     133.889421       0.000000
    273.866179     138.037844     131.604632       0.000000
    282.825450     128.268537     135.982595       0.000000
    254.446191     126.934702     129.591570       0.000000
    291.449646     132.440717     135.924300       0.000000
    277.981836     163.267628     123.939594       0.000000
    283.826735     171.358618     121.935260       0.000000
    281.803577     201.927207     113.603104       0.000000
    270.448272     201.426626     113.454204       0.000000
    273.665544     192.474151     114.366245       0.000000
    267.891409     211.166092     113.570225       0.000000
    247.258614     226.482909     114.125661       0.000000
    268.267954     221.711544     114.048114       0.000000
    265.507762     232.259130     117.000469       0.000000
    282.499073     258.028797     124.065017       0.000000
    269.885546     267.168702     126.748945       0.000000
    270.344838     248.405599     123.415894       0.000000
    251.323580     278.538143     129.708929       0.000000
    286.998344     296.435333     123.026053       0.000000
    277.668679     299.508758     122.334403       0.000000
    291.325531     308.853694     120.737775       0.000000
    280.302169     308.926296     121.854803       0.000000
    255.544347     322.301844     119.992593       0.000000
    269.175810     349.195978     122.431481       0.000000
    274.981844     355.862099     125.565361       0.000000
    272.365298     365.090599     128.928963       0.000000
    275.724884     374.600129     131.154894       0.000000
    275.983434     384.079098     133.492779       0.000000
    279.763176     395.959521     135.426151       0.000000
    270.023434     390.939090     133.576619       0.000000
    263.091210     398.838893     131.574843       0.000000
    267.200990     411.699274     134.140784       0.000000
    273.371615     419.307735     131.827763       0.000000
    262.065350     427.128668     125.853299       0.000000
    271.665944     432.486705     127.527251       0.000000
    267.531318     444.930677     123.446639       0.000000
    277.909500     463.748024     124.296933       0.000000
    279.556526     480.628187     125.750520       0.000000
    270.727032     487.080095     124.275431       0.000000
    270.000000     500.000000     123.298430       0.000000
    280.000000      10.000000     125.094513       0.000000
    283.843148      18.152226     125.429727       0.000000
    279.185607      26.838706     123.522904       0.000000
    274.944294      35.802010     123.038207       0.000000
    284.472370      50.623139     123.818928       0.000000
    284.856931      59.673314     123.995302       0.000000
    279.759157      68.097892     124.001069       0.000000
    281.840887      78.963550     126.664002       0.000000
    274.509132      84.674151     125.973706       0.000000
    290.838038      92.951372     132.365397       0.000000
    264.588812     105.544742     128.716163       0.000000
    271.094644     117.263939     133.549803       0.000000
    291.034556     151.101176     130.187935       0.000000
    265.201516     145.474873     127.766044       0.000000
    283.276344     141.296035     131.843868       0.000000
    277.328599     148.695174     128.365100       0.000000
    272.496914     175.940637     119.451838       0.000000
    288.197076     163.370019     124.987980       0.000000
    287.279479     213.849773     114.575889       0.000000
    277.108335     211.204278     113.678881       0.000000
    289.460951     223.093252     115.857439       0.000000
    280.705239     220.070885     114.777018       0.000000
    277.313623     230.040672     116.990784       0.000000
    272.478610     239.822100     120.501303       0.000000
    280.118261     247.652773     121.823109       0.000000
    289.783247     267.583460     124.960419       0.000000
    262.595142     275.857138     129.011371       0.000000
    274.092569     279.223764     126.670338       0.000000
    270.422795     287.538420     125.973133       0.000000
    285.445179     286.615003     124.411319       0.000000
    269.038039     307.990250     120.759433       0.000000
    266.925498     329.189119     117.155779       0.000000
    278.457174     328.242190     120.544374       0.000000
    265.970258     341.149734     119.062865       0.000000
    281.631349     345.518596     122.364444       0.000000
    284.951816     365.376143     129.855217       0.000000
    285.819706     374.483207     132.873288       0.000000
    285.391539     386.943474     134.453989       0.000000
    284.322211     404.914371     135.364555       0.000000
    271.662446     401.882908     135.625178       0.000000
    275.888542     409.974099     135.824152       0.000000
    288.324325     424.995039     130.352990       0.000000
    279.391618     426.843939     130.034312       0.000000
    297.067670     434.873957     127.996458       0.000000
    277.633181     440.726313     125.388340       0.000000
    276.881409     450.480755     123.573046       0.000000
    273.703109     471.841933     124.342035       0.000000
    283.737441     472.353412     125.904036       0.000000
    279.821912     490.364939     126.102795       0.000000
    280.000000     500.000000     126.045098       0.000000
    290.000000      10.000000     127.384160       0.000000
    293.667365      18.309519     128.762978       0.000000
    291.571420      30.134292     127.394404       0.000000
    282.522744      41.653659     124.699470       0.000000
    292.910499      40.236287     126.936598       0.000000
    293.541247      49.747059     126.010849       0.000000
    296.761298      60.496313     125.558785       0.000000
    292.628044      82.120118     128.718251       0.000000
    283.418306      88.302793     129.972026       0.000000
    299.803350      91.060184     131.485680       0.000000
    293.208655     101.898055     136.270562       0.000000
    295.568517     114.390879     138.309238       0.000000
    273.128887     104.754819     131.848541       0.000000
    280.708997     116.989226     137.114760       0.000000
    299.412783     149.817798     134.072893       0.000000
    297.164669     160.377386     130.371898       0.000000
    283.731358     155.686264     126.677892       0.000000
    297.184866     181.567272     118.778295       0.000000
    283.176496     191.686803     114.950812       0.000000
    291.705854     199.634794     114.694228       0.000000
    297.645377     209.250135     115.183495       0.000000
    296.003060     230.792150     117.725399       0.000000
    305.687552     236.559196     119.452336       0.000000
    285.341445     237.149442     118.778400       0.000000
    290.454099     249.879511     121.819822       0.000000
    292.878003     259.033743     124.584414       0.000000
    279.434123     268.459428     125.829125       0.000000
    286.460904     276.237883     125.469573       0.000000
    295.664445     292.177402     122.905594       0.000000
    285.718145     317.514403     119.708511       0.000000
    294.751593     321.409114     119.495937       0.000000
    276.578969     318.705753     120.300695       0.000000
    287.581582     330.119508     120.233435       0.000000
    274.764528     337.222018     119.882013       0.000000
    288.221512     339.075561     121.171047       0.000000
    291.254067     348.518394     123.550415       0.000000
    284.648716     356.841565     126.620696       0.000000
    296.368397     366.386083     128.210521       0.000000
    291.984456     399.416111     134.214255       0.000000
    303.053926     394.315036     132.105008       0.000000
    283.557620     415.223037     134.986611       0.000000
    298.250923     425.750168     127.802899       0.000000
    285.682778     435.138150     128.314393       0.000000
    290.247580     445.928780     124.670180       0.000000
    301.245719     444.750291     126.244414       0.000000
    294.924443     454.100678     125.860769       0.000000
    285.740272     454.625697     125.548758       0.000000
    292.632371     480.731075     127.344306       0.000000
    290.108148     489.667531     128.067923       0.000000
    290.000000     500.000000     127.149128       0.000000
    300.000000      10.000000     130.435707       0.000000
    300.962797      31.430979     131.224925       0.000000
    301.477689      41.990472     129.546888       0.000000
    311.167439      41.483605     130.417177       0.000000
    307.756264      62.016121     123.429632       0.000000
    308.438953      71.077092     125.216762       0.000000
    290.090955      73.525994     126.221478       0.000000
    299.467251      71.985426     126.524962       0.000000
    303.772982      99.831405     135.606157       0.000000
    322.149116      95.452956     130.738666       0.000000
    309.073808      91.741488     131.016618       0.000000
    304.387335     110.855688     137.749364       0.000000
    287.532991     109.886823     137.655404       0.000000
    300.450818     130.997679     137.351747       0.000000
    307.327000     156.584039     134.831055       0.000000
    305.145198     166.691254     129.381203       0.000000
    294.855875     169.456740     125.348445       0.000000
    301.834437     175.261904     123.509868       0.000000
    292.362705     190.482630     115.745935       0.000000
    305.672805     202.481102     115.217974       0.000000
    308.286701     217.063607     116.823630       0.000000
    298.241324     219.895216     115.484797       0.000000
    306.255315     226.852221     118.319701       0.000000
    295.553682     242.090625     120.058943       0.000000
    299.985610     253.062324     124.347169       0.000000
    313.856414     266.116448     126.111448       0.000000
    301.361688     267.065404     126.507011       0.000000
    296.295912     274.894800     125.833795       0.000000
    304.175581     295.319623     122.505738       0.000000
    299.110443     303.344965     121.271083       0.000000
    310.029045     302.975869     120.773706       0.000000
    303.702304     322.586959     119.478005       0.000000
    305.575519     336.231993     119.813509       0.000000
    297.685566     331.124288     119.374743       0.000000
    299.428495     344.788402     120.962163       0.000000
    296.581996     357.172100     125.450962       0.000000
    304.200652     363.937848     123.352908       0.000000
    294.171955     376.983925     130.518023       0.000000
    303.700671     383.061673     127.782517       0.000000
    309.693312     389.093264     124.565047       0.000000
    296.676293     407.151634     132.701617       0.000000
    293.237669     416.299246     132.484729       0.000000
    306.809845     432.507267     126.395704       0.000000
    310.928989     443.011480     123.429531       0.000000
    320.074286     451.410931     124.253734       0.000000
    292.638837     465.300596     125.732440       0.000000
    298.787757     472.771263     126.527705       0.000000
    309.455953     489.908324     130.576234       0.000000
    304.324481     479.787260     128.904633       0.000000
    300.000000     500.000000     129.423364       0.000000
    310.000000      10.000000     131.665548       0.000000
    303.377917      22.673563     131.976452       0.000000
    313.424252      32.751952     132.881247       0.000000
    304.670628      50.362906     125.454402       0.000000
    328.633991      65.928983     123.869239       0.000000
    326.976336      53.883128     124.846859       0.000000
    313.860882      78.358621     126.325791       0.000000
    320.374601      70.387708     124.783065       0.000000
    305.800350      82.613224     126.493420       0.000000
    327.520905      88.421346     126.206607       0.000000
    301.385876     122.066475     139.571960       0.000000
    291.112299     122.813987     137.059970       0.000000
    302.994582     142.026700     137.612622       0.000000
    293.403849     142.565370     133.677674       0.000000
    313.032957     149.629980     136.892451       0.000000
    319.835572     156.120163     134.790004       0.000000
    311.282984     176.398937     123.919725       0.000000
    320.991389     178.674517     123.048814       0.000000
    302.355332     192.299432     115.625806       0.000000
    315.205006     194.998564     116.458231       0.000000
    314.705264     207.353764     115.746584       0.000000
    315.816767     221.681459     118.834188       0.000000
    324.927877     225.773454     122.756956       0.000000
    314.979271     231.269611     122.402970       0.000000
    307.940931     259.022524     127.187788       0.000000
    306.844469     276.095298     127.372387       0.000000
    308.506160     286.175264     125.074911       0.000000
    298.780784     283.689846     124.932405       0.000000
    320.018237     284.445572     123.586146       0.000000
    322.952443     293.100027     122.848317       0.000000
    313.436652     294.402220     123.515657       0.000000
    303.628962     313.044624     120.136810       0.000000
    313.812216     320.459736     118.242873       0.000000
    314.736066     330.347700     119.140912       0.000000
    319.543652     354.019786     117.245282       0.000000
    316.120437     340.403973     118.142880       0.000000
    310.794741     348.357714     119.344550       0.000000
    302.819223     372.981703     127.155225       0.000000
    311.639906     380.404077     123.240216       0.000000
    295.721356     386.162507     132.275156       0.000000
    305.158280     405.637301     128.818270       0.000000
    302.275011     416.592758     128.363905       0.000000
    319.757389     418.283379     122.634921       0.000000
    322.479047     471.873055     127.680796       0.000000
    315.530436     463.124045     126.398193       0.000000
    309.669183     453.616484     124.630042       0.000000
    301.676474     463.170157     125.787798       0.000000
    314.133555     481.163661     130.661877       0.000000
    299.738540     489.731449     129.014169       0.000000
    310.000000     500.000000     131.553276       0.000000
    320.000000      10.000000     132.478493       0.000000
    315.358810      19.598502     133.521733       0.000000
    321.586705      26.431379     132.270146       0.000000
    314.918748      51.039361     126.238264       0.000000
    318.802132      60.006069     125.602466       0.000000
    334.903449      73.382025     124.338168       0.000000
    343.945001      68.841172     123.767951       0.000000
    326.776816      78.612885     125.028508       0.000000
    317.582231      86.732768     126.895938       0.000000
    331.590140     107.205656     130.916400       0.000000
    321.268014     104.456335     133.451520       0.000000
    314.790303     110.675155     134.621810       0.000000
    310.270768     124.818986     138.364508       0.000000
    311.501519     137.011605     137.800083       0.000000
    321.825441     130.786999     137.782990       0.000000
    330.471684     170.698426     125.607530       0.000000
    313.456201     163.688391     131.799276       0.000000
    318.871816     186.085119     118.310509       0.000000
    308.706629     183.833943     119.142854       0.000000
    323.678124     203.704910     115.827446       0.000000
    321.180744     213.401330     117.962378       0.000000
    333.423667     221.949148     122.421791       0.000000
    314.262976     240.484554     123.330527       0.000000
    305.154666     245.914948     121.874333       0.000000
    323.224137     256.693308     124.754092       0.000000
    314.793800     253.358964     125.155777       0.000000
    335.812829     262.180914     124.380771       0.000000
    316.222302     275.767510     125.848158       0.000000
    330.868615     285.155597     123.607458       0.000000
    319.353806     302.504246     121.662087       0.000000
    313.101396     311.529482     119.476194       0.000000
    333.370413     329.707321     117.088772       0.000000
    326.908198     341.564072     116.847711       0.000000
    342.319372     331.483758     114.933185       0.000000
    329.917404     350.139124     115.317003       0.000000
    312.856785     359.868596     119.028620       0.000000
    305.314445     355.183173     121.439582       0.000000
    311.649540     370.042027     122.388330       0.000000
    318.301474     394.444250     122.352862       0.000000
    320.763109     404.138998     122.300588       0.000000
    310.074508     423.353386     126.395222       0.000000
    316.465927     430.630362     123.019355       0.000000
    330.197364     446.134714     122.767242       0.000000
    325.483268     428.495092     121.408390       0.000000
    324.105882     460.140397     125.511718       0.000000
    349.039334     448.814375     120.498019       0.000000
    310.126431     471.551621     128.836193       0.000000
    324.990194     481.483251     129.725982       0.000000
    321.487188     490.834962     131.789668       0.000000
    320.000000     500.000000     132.694349       0.000000
    330.000000      10.000000     131.241355       0.000000
    336.968273      18.914811     130.571661       0.000000
    327.782614      18.742409     130.964219       0.000000
    330.039730      31.634707     132.132510       0.000000
    321.801010      37.517384     132.006376       0.000000
    344.286055      55.691881     123.776906       0.000000
    336.864709      50.757607     125.328062       0.000000
    330.683497      98.311885     128.113203       0.000000
    352.201580      97.351985     122.487997       0.000000
    324.495590     113.535475     134.391700       0.000000
    335.257543     116.405514     131.761713       0.000000
    339.412178      99.810604     126.439440       0.000000
    318.871557     120.776564     136.389930       0.000000
    331.001370     131.865559     136.258001       0.000000
    320.768338     143.351686     137.500950       0.000000
    321.249213     168.242211     128.429461       0.000000
    328.758833     161.423973     130.068630       0.000000
    329.161801     183.192018     119.702392       0.000000
    334.067949     191.572432     117.604358       0.000000
    335.151678     201.466256     116.676452       0.000000
    330.378989     209.902649     118.126554       0.000000
    324.223499     235.130884     125.060180       0.000000
    333.029481     242.844801     125.718751       0.000000
    321.572180     247.107260     125.255495       0.000000
    335.890562     251.329915     124.151472       0.000000
    326.654179     265.215727     123.420711       0.000000
    335.342068     272.527757     125.521752       0.000000
    325.139816     276.129402     124.234149       0.000000
    340.533845     286.145960     122.351342       0.000000
    334.074264     295.368177     121.671113       0.000000
    323.971356     332.064914     117.436126       0.000000
    322.890289     312.058275     119.816964       0.000000
    325.324741     321.427976     117.974035       0.000000
    336.210568     340.672026     115.329860       0.000000
    341.988016     349.326419     114.728519       0.000000
    328.670447     371.017248     116.582159       0.000000
    323.600764     363.137749     116.126747       0.000000
    320.193208     374.140680     119.076169       0.000000
    321.933695     383.030139     120.020979       0.000000
    328.378769     397.128766     120.664170       0.000000
    311.883986     400.044178     125.513536       0.000000
    326.326458     411.843927     120.916523       0.000000
    335.456508     429.591773     118.695396       0.000000
    319.544830     439.338047     123.509048       0.000000
    340.245860     445.995542     121.161847       0.000000
    332.166287     464.624298     125.391587       0.000000
    331.783511     474.599788     127.589548       0.000000
    332.100542     489.096351     129.872594       0.000000
    341.714568     490.018126     130.235151       0.000000
    330.000000     500.000000     131.388332       0.000000
    340.000000      10.000000     130.254494       0.000000
    346.066349      18.437699     129.285753       0.000000
    339.319329      28.835115     129.685852       0.000000
    341.712095      37.812868     127.116762       0.000000
    330.490944      40.846556     129.449078       0.000000
    336.161111      60.947686     123.376327       0.000000
    322.480494      46.518868     128.280190       0.000000
    338.755683      82.773294     123.743936       0.000000
    342.432507      91.397745     124.471590       0.000000
    340.480798     110.262546     127.110495       0.000000
    313.254652      99.887137     133.596848       0.000000
    341.590239     123.904160     132.309217       0.000000
    328.860617     122.773672     134.749510       0.000000
    349.944197     128.582142     128.934830       0.000000
    330.326830     141.328403     135.572370       0.000000
    338.430335     175.274383     121.425599       0.000000
    346.553293     179.593408     121.385217       0.000000
    353.333664     189.318156     119.700582       0.000000
    325.166847     192.886952     117.130196       0.000000
    339.187064     184.157025     118.837796       0.000000
    344.386750     206.161306     118.365948       0.000000
    333.296351     231.137289     125.608682       0.000000
    346.049183     231.792749     125.180212       0.000000
    344.582497     249.362499     125.993415       0.000000
    343.171500     240.260455     126.818472       0.000000
    344.697538     263.571272     126.176952       0.000000
    351.196945     257.374770     127.451643       0.000000
    346.052906     273.107486     124.310249       0.000000
    345.363797     295.872341     120.666845       0.000000
    332.087080     311.700488     119.766282       0.000000
    334.570745     320.444616     117.889935       0.000000
    347.914945     324.492770     116.477036       0.000000
    345.696033     340.762596     114.062828       0.000000
    355.844071     346.247518     113.346497       0.000000
    346.016664     363.880098     113.949032       0.000000
    337.642759     358.821412     114.283782       0.000000
    338.248381     369.553612     115.097553       0.000000
    343.968977     387.561074     116.656191       0.000000
    330.497298     383.031320     117.083482       0.000000
    338.209563     406.140886     116.746132       0.000000
    314.556491     410.866577     124.581054       0.000000
    333.382354     420.382417     118.058801       0.000000
    343.015749     416.370239     116.092521       0.000000
    328.543708     437.139200     122.183692       0.000000
    358.781413     433.406199     118.362696       0.000000
    342.287424     436.806829     118.888921       0.000000
    333.881804     454.658637     122.817597       0.000000
    341.843863     472.747643     124.893142       0.000000
    351.459385     490.322835     129.604228       0.000000
    340.000000     500.000000     130.509307       0.000000
    350.000000      10.000000     129.627184       0.000000
    355.054112      19.708815     127.459749       0.000000
    348.547317      27.103691     128.260169       0.000000
    356.999014      38.418671     125.233981       0.000000
    348.523334      45.252516     124.847362       0.000000
    354.771017      60.816586     123.170313       0.000000
    351.495019      73.861375     123.277777       0.000000
    348.420942      83.795045     124.249554       0.000000
    360.425186     103.751115     121.546373       0.000000
    356.713949     114.516068     122.553289       0.000000
    347.726386     117.858689     126.845063       0.000000
    357.002106     123.426202     125.395000       0.000000
    341.273769     137.101070     133.521625       0.000000
    340.547531     147.339378     132.554578       0.000000
    338.402043     166.024977     124.814568       0.000000
    350.194622     149.320280     127.610144       0.000000
    344.854052     159.045157     126.679890       0.000000
    349.451777     166.521738     124.494295       0.000000
    350.608243     198.784970     119.109802       0.000000
    344.688284     191.524124     118.181627       0.000000
    339.132899     214.356972     119.188440       0.000000
    357.579156     205.751148     121.627243       0.000000
    342.543871     222.371697     122.411175       0.000000
    352.810895     240.853286     127.121469       0.000000
    365.055891     241.664227     127.454624       0.000000
    359.299457     248.572013     127.042404       0.000000
    353.728528     266.493160     125.166331       0.000000
    367.473059     264.877828     124.299102       0.000000
    350.061214     287.570308     121.636474       0.000000
    328.608004     302.651799     122.005347       0.000000
    342.989934     316.078227     117.749095       0.000000
    364.534891     313.975821     116.795004       0.000000
    355.324590     313.583695     117.303877       0.000000
    351.611516     354.229679     113.469668       0.000000
    357.791088     362.936076     113.398078       0.000000
    349.034476     373.353483     116.386650       0.000000
    341.783880     378.714726     116.140450       0.000000
    352.464755     381.812230     117.389426       0.000000
    337.745637     395.305436     117.696793       0.000000
    360.226074     402.786620     115.451109       0.000000
    348.907050     396.356848     114.966610       0.000000
    350.825501     406.983751     116.060312       0.000000
    345.016591     427.137195     116.258160       0.000000
    351.305325     439.254621     119.769528       0.000000
    351.737924     457.650745     122.278613       0.000000
    342.740983     458.977166     122.948149       0.000000
    351.347954     467.998735     123.383588       0.000000
    338.925505     481.055081     128.082026       0.000000
    364.350508     490.944662     128.530142       0.000000
    350.000000     500.000000     130.488582       0.000000
    360.000000      10.000000     129.109670       0.000000
    365.601562      20.849059     126.522579       0.000000
    365.306986      34.742668     124.248784       0.000000
    357.672136      50.240675     123.260683       0.000000
    375.165766      53.649195     120.921830       0.000000
    364.926469      58.249592     124.515342       0.000000
    361.450712      68.938313     122.516633       0.000000
    371.798015      84.212470     120.110471       0.000000
    362.182989      89.145044     121.672615       0.000000
    370.162013     108.297712     119.880205       0.000000
    375.304800     116.168295     119.272131       0.000000
    359.236729     134.197603     124.298851       0.000000
    336.450757     155.527195     130.130090       0.000000
    329.676423     150.352554     133.741854       0.000000
    359.612500     145.941018     123.839598       0.000000
    363.076635     154.308594     122.198052       0.000000
    354.026867     157.680830     125.193808       0.000000
    357.764700     176.979323     120.240313       0.000000
    360.899099     195.215595     121.079897       0.000000
    369.438230     196.290574     124.452625       0.000000
    366.685018     207.714785     124.853181       0.000000
    348.490748     215.030890     121.561306       0.000000
    351.796914     224.120922     123.886743       0.000000
    375.564165     242.036436     127.306819       0.000000
    369.087624     252.589139     126.248164       0.000000
    361.384323     258.178027     126.949974       0.000000
    374.987381     273.627022     116.494564       0.000000
    361.897981     288.813293     118.562254       0.000000
    346.398469     305.216041     118.855030       0.000000
    337.368328     304.516289     121.072574       0.000000
    358.432193     304.218491     118.326339       0.000000
    365.509709     330.576550     115.594404       0.000000
    357.069845     334.205351     116.894343       0.000000
    374.929966     340.593915     114.051860       0.000000
    365.045475     343.435872     112.698960       0.000000
    363.106347     353.812041     113.625163       0.000000
    358.612403     371.663470     116.110367       0.000000
    362.211123     381.491284     116.353246       0.000000
    369.616697     397.026374     117.506713       0.000000
    360.938077     414.256436     113.901765       0.000000
    370.514064     406.890492     117.321834       0.000000
    352.693395     419.554852     115.343820       0.000000
    368.968314     434.591381     118.179699       0.000000
    361.088740     441.996919     120.630120       0.000000
    359.199017     450.872227     121.151546       0.000000
    359.785137     474.622599     123.669277       0.000000
    358.294796     483.763917     127.343634       0.000000
    348.550533     479.906073     126.473300       0.000000
    371.878929     486.776453     125.637174       0.000000
    360.000000     500.000000     129.378576       0.000000
    370.000000      10.000000     126.651935       0.000000
    375.006397      19.041013     125.791492       0.000000
    358.615136      28.557409     126.260558       0.000000
    365.529355      44.425204     123.410088       0.000000
    374.631970      65.127085     122.515534       0.000000
    361.174793      79.691645     121.862547       0.000000
    377.836239      76.130740     120.359832       0.000000
    395.396508      85.056965     117.548885       0.000000
    367.013184      96.924020     119.694347       0.000000
    348.804440     107.411917     123.258483       0.000000
    378.983215     126.392125     120.820942       0.000000
    366.072284     118.635405     120.626911       0.000000
    368.092827     130.148721     122.073006       0.000000
    390.609347     130.914936     122.353941       0.000000
    350.307379     138.159021     129.716111       0.000000
    368.011824     139.371136     122.485423       0.000000
    372.410149     148.356804     122.349490       0.000000
    367.500710     175.342655     120.890379       0.000000
    366.839065     184.383581     122.609272       0.000000
    373.984623     213.934755     130.169408       0.000000
    359.179135     214.761202     124.720396       0.000000
    365.713560     220.998572     127.034733       0.000000
    360.015341     232.595871     127.169005       0.000000
    369.376858     232.262195     127.989698       0.000000
    378.061607     251.417901     125.129644       0.000000
    375.857796     259.969837     122.996943       0.000000
    384.983290     257.191438     120.690610       0.000000
    357.318422     275.288465     122.198998       0.000000
    368.189721     297.851343     115.865488       0.000000
    355.756833     295.497263     118.831200       0.000000
    373.531106     305.058220     114.913279       0.000000
    388.049440     317.039233     116.516808       0.000000
    359.024901     323.274804     116.181976       0.000000
    385.022656     326.633639     116.010194       0.000000
    375.279993     329.843334     114.841466       0.000000
    372.120628     353.287184     115.011116       0.000000
    369.142667     363.591041     115.368039       0.000000
    369.439081     372.540247     116.722426       0.000000
    358.300100     390.291245     116.737636       0.000000
    377.996709     401.714351     120.494959       0.000000
    383.356223     422.764601     120.755298       0.000000
    370.445976     425.148718     117.021539       0.000000
    360.807905     425.037860     115.614322       0.000000
    369.632016     444.972981     121.204413       0.000000
    376.359960     451.858078     122.970913       0.000000
    359.463301     464.060723     122.610260       0.000000
    367.335521     457.584604     122.557818       0.000000
    369.502643     476.991744     124.497213       0.000000
    380.577224     490.772949     124.899587       0.000000
    370.000000     500.000000     127.248389       0.000000
    380.000000      10.000000     124.787355       0.000000
    386.038267      19.756780     123.743031       0.000000
    371.773177      28.303406     124.879497       0.000000
    383.100612      45.603758     121.555838       0.000000
    395.813018      40.029705     121.962701       0.000000
    385.284851      56.506712     120.580342       0.000000
    369.185045      73.489329     121.534856       0.000000
    385.231784      65.858970     120.069472       0.000000
    381.437825      98.089097     117.650103       0.000000
    383.857531     111.191459     119.203815       0.000000
    395.810231     114.281866     120.094556       0.000000
    388.345104     120.406791     119.495194       0.000000
    381.714390     145.431306     123.116822       0.000000
    381.092564     135.794779     121.978201       0.000000
    372.676592     159.551112     122.347683       0.000000
    391.430795     149.208673     125.208067       0.000000
    362.747786     164.715928     121.041441       0.000000
    374.426227     168.676596     122.473636       0.000000
    379.029014     189.829788     125.763462       0.000000
    383.057812     209.906765     129.174250       0.000000
    385.044927     218.739787     128.495419       0.000000
    396.720600     226.231779     126.805609       0.000000
    374.590049     223.372586     127.899312       0.000000
    388.048446     229.152443     127.411740       0.000000
    378.776487     232.573005     128.295000       0.000000
    385.256135     268.021607     116.855960       0.000000
    379.153152     281.406878     114.725287       0.000000
    365.953271     277.920193     118.743983       0.000000
    372.042594     288.155668     115.633442       0.000000
    379.503728     296.429624     114.765397       0.000000
    372.384895     320.886976     115.436602       0.000000
    392.534067     307.560366     114.759279       0.000000
    384.068033     336.429065     114.395059       0.000000
    381.353109     347.112376     114.646768       0.000000
    388.329209     353.572266     118.287171       0.000000
    378.953427     359.650526     117.320228       0.000000
    378.313858     370.681200     118.450366       0.000000
    394.311273     378.837812     125.481761       0.000000
    380.634322     380.001586     121.280248       0.000000
    371.739916     383.668641     118.210128       0.000000
    369.953489     416.050532     116.060194       0.000000
    388.290958     431.408224     122.813754       0.000000
    382.520442     441.528488     121.271853       0.000000
    378.912256     432.421326     119.404330       0.000000
    390.735596     446.188603     123.718789       0.000000
    376.880641     461.216419     123.228739       0.000000
    368.412627     467.296641     122.526624       0.000000
    380.313307     480.580264     125.002419       0.000000
    387.509212     475.000955     124.802208       0.000000
    380.000000     500.000000     125.976684       0.000000
    390.000000      10.000000     123.156896       0.000000
    395.591501      17.830672     122.944150       0.000000
    374.154113      41.392418     123.135025       0.000000
    384.382779      36.682223     121.961419       0.000000
    402.931465      45.491210     124.364958       0.000000
    391.475636      49.145893     120.997654       0.000000
    390.530106      73.515494     119.454287       0.000000
    399.238222      76.675128     117.838406       0.000000
    385.859658      81.182859     118.194521       0.000000
    379.736513      88.444674     118.716668       0.000000
    390.696807     103.503910     119.313055       0.000000
    409.275465     114.714927     121.115354       0.000000
    401.374014     130.875571     123.348881       0.000000
    389.266830     139.756399     124.188187       0.000000
    383.071541     156.239704     123.099394       0.000000
    392.134988     159.089036     124.503673       0.000000
    383.278292     166.229608     123.700874       0.000000
    386.009157     177.114851     125.303854       0.000000
    376.682061     201.573264     127.904754       0.000000
    386.141054     195.651237     128.384428       0.000000
    390.987787     205.195097     129.462867       0.000000
    394.134671     214.473430     129.191194       0.000000
    407.543587     228.468643     125.075560       0.000000
    405.314088     237.887774     123.113106       0.000000
    394.490088     237.015340     125.432061       0.000000
    385.147792     239.480935     127.120497       0.000000
    394.145266     254.490602     120.600235       0.000000
    388.365119     291.041059     113.539359       0.000000
