     55.177319      69.662648     113.455474       0.000000
     51.194976      99.884008     108.757328       0.000000
     62.548925      84.334625     113.269148       0.000000
     61.191153     101.051464     110.504157       0.000000
     70.610867     101.829852     114.722184       0.000000
     60.527541     112.860065     111.139124       0.000000
     68.191864     116.785427     114.285821       0.000000
     60.442767     121.921262     114.006791       0.000000
     56.379881     145.237125     119.169470       0.000000
     54.363621     155.520055     121.689894       0.000000
     63.472976     151.843237     120.095381       0.000000
     54.237293     182.001867     124.387843       0.000000
     50.446116     189.862671     126.809245       0.000000
     59.052818     193.553102     122.013733       0.000000
     62.514190     206.971922     122.352757       0.000000
     56.853046     213.797628     125.855853       0.000000
     51.688368     230.514293     129.353078       0.000000
     63.971930     229.718150     122.059960       0.000000
     68.389382     238.199949     119.504840       0.000000
     70.215589     247.019572     119.551588       0.000000
     50.387202     262.350038     127.603357       0.000000
     71.715627     276.605037     124.725747       0.000000
     54.980414     282.528680     126.542703       0.000000
     60.407205     292.749895     125.549970       0.000000
     57.293865     317.465027     124.222903       0.000000
     65.988963     315.088277     126.086716       0.000000
     69.955833     326.711297     125.525908       0.000000
     64.817889     356.864322     131.375029       0.000000
     63.773504     367.176441     134.481554       0.000000
     45.970359     367.151733     133.506542       0.000000
     63.310932     381.090909     133.686635       0.000000
     53.562056     382.780976     131.544868       0.000000
     52.007616     393.827255     131.524019       0.000000
     59.733560     399.913024     134.712104       0.000000
     58.493144     409.530701     134.452616       0.000000
     66.372615     419.684411     131.919478       0.000000
     68.258887     429.703920     131.722221       0.000000
     54.315041     446.700158     131.817106       0.000000
     45.474918     436.304048     129.059922       0.000000
     58.894337     462.694340     130.027938       0.000000
     75.954554     473.997406     130.362561       0.000000
     58.644892     478.128615     128.852480       0.000000
     55.036672     488.680824     126.085439       0.000000
     60.000000     500.000000     123.321186       0.000000
     70.000000      10.000000     121.800889       0.000000
     59.834406      20.568362     118.403563       0.000000
     69.836867      20.288182     120.418716       0.000000
     80.306831      54.980965     118.419179       0.000000
     69.147226      58.080231     116.058897       0.000000
     75.409266      66.442582     118.245577       0.000000
     51.151955      80.725662     110.565637       0.000000
     62.498505      75.038917     114.365622       0.000000
     71.096500      77.770330     117.031600       0.000000
     66.487102      93.129285     113.665770       0.000000
     76.649008     110.518174     116.055651       0.000000
     75.563688     121.783394     116.273762       0.000000
     68.412451     127.531116     116.504632       0.000000
     82.260103     143.479756     118.035242       0.000000
     58.411183     134.380132     115.619458       0.000000
     67.218753     138.453978     116.645664       0.000000
     75.162004     170.927055     119.676081       0.000000
     83.056277     163.748947     119.873973       0.000000
     63.497506     184.510127     120.629225       0.000000
     68.309435     197.949056     120.664110       0.000000
     64.372080     220.526095     121.603914       0.000000
     56.620399     223.079462     127.173791       0.000000
     74.356575     219.384344     119.075029       0.000000
     73.322651     229.425203     118.543281       0.000000
     78.009548     242.170416     117.568303       0.000000
     73.223022     257.738615     120.588105       0.000000
     82.794299     250.805626     117.270248       0.000000
     68.284756     266.203605     124.624382       0.000000
     80.010489     292.360580     126.043958       0.000000
     67.793795     286.716905     126.393169       0.000000
     56.768216     307.857560     125.865613       0.000000
     67.459742     304.772741     126.875422       0.000000
     64.814116     334.529407     126.949800       0.000000
     57.670785     326.242180     126.636122       0.000000
     65.949886     343.561419     129.346153       0.000000
     77.792253     350.676146     130.154281       0.000000
     57.150818     374.352896     132.199541       0.000000
     60.837175     390.373674     134.018751       0.000000
     70.567905     392.801082     134.767175       0.000000
     72.221506     381.834921     135.627689       0.000000
     67.229501     405.675161     134.071405       0.000000
     74.926905     423.134897     131.956579       0.000000
     68.202996     440.769551     130.855239       0.000000
     72.118791     449.819744     130.277355       0.000000
     67.959275     460.856626     130.588607       0.000000
     76.869348     464.832517     130.360886       0.000000
     69.811105     481.692636     129.281255       0.000000
     64.582477     489.234318     125.990474       0.000000
     74.429052     489.163696     127.173631       0.000000
     70.000000     500.000000     123.746841       0.000000
     80.000000      10.000000     122.800168       0.000000
     87.360865      19.956771     122.815753       0.000000
     78.256738      24.656781     121.365762       0.000000
     75.336043      33.170993     119.098525       0.000000
     85.297418      47.097951     119.304008       0.000000
     84.943026      64.655042     123.539747       0.000000
     93.190349      72.245382     126.209164       0.000000
     81.299181      74.691356     121.240953       0.000000
     85.499255      93.576094     121.681829       0.000000
     74.879559      89.117944     116.940853       0.000000
     77.871968      97.598971     118.091651       0.000000
     84.340484     117.473309     117.697199       0.000000
     82.960260     129.760183     116.497523       0.000000
     92.436102     152.281564     118.329369       0.000000
     89.576396     136.061120     118.214248       0.000000
     71.544192     147.482616     117.588443       0.000000
     74.083523     161.225411     120.223663       0.000000
     76.563431     187.271191     118.726451       0.000000
     85.278328     192.277065     118.191974       0.000000
     70.845515     209.768569     119.182184       0.000000
     79.902374     209.505141     117.981597       0.000000
     92.517300     210.729327     116.139326       0.000000
     84.457850     228.444939     115.228242       0.000000
     98.680666     234.079003     115.674784       0.000000
     86.301068     263.554430     118.999072       0.000000
     77.853729     266.877373     121.341310       0.000000
     80.395450     282.008152     123.955917       0.000000
     88.744032     286.638573     123.613816       0.000000
     69.716119     295.687275     127.182900       0.000000
     80.289472     302.997559     126.345096       0.000000
     87.559881     308.695920     125.775734       0.000000
     75.332664     311.528486     126.911025       0.000000
     80.032502     320.702847     125.430530       0.000000
     57.702892     347.389100     129.796751       0.000000
     87.314621     348.080064     128.493798       0.000000
     73.884074     359.834261     133.038023       0.000000
     91.699157     375.641815     131.961735       0.000000
     84.160743     380.270764     134.268764       0.000000
     72.423329     372.225318     135.806631       0.000000
     78.861238     401.491036     131.999290       0.000000
     88.114677     397.719514     128.401165       0.000000
     79.509092     413.453590     131.510484       0.000000
     59.029102     429.335603     130.109485       0.000000
     86.521802     443.216731     129.438729       0.000000
     81.108448     453.891509     128.849676       0.000000
     87.910175     461.737917     129.147136       0.000000
     84.401809     470.680058     130.181108       0.000000
     81.058571     482.633020     129.222940       0.000000
     83.867697     491.319391     126.456540       0.000000
     80.000000     500.000000     123.787277       0.000000
     90.000000      10.000000     123.854112       0.000000
     85.880588      36.302227     122.533751       0.000000
     92.492275      42.530712     123.092842       0.000000
     77.141016      42.120310     117.457465       0.000000
     89.434769      56.606413     123.310687       0.000000
     95.590264      63.311644     126.024186       0.000000
    104.887787      67.847049     130.020816       0.000000
     94.068604      81.658541     124.930508       0.000000
     83.095481      84.299054     121.490991       0.000000
     91.533480     100.625426     122.643580       0.000000
     83.670216     104.940289     118.369709       0.000000
     91.932182     123.304344     118.047275       0.000000
     97.743821     130.557819     118.881993       0.000000
     96.932050     141.572648     118.857888       0.000000
     76.517682     136.655819     116.553063       0.000000
     92.381862     174.037845     119.079509       0.000000
     81.746322     152.434714     119.124816       0.000000
     71.592504     179.557022     119.218018       0.000000
     96.078881     189.976424     119.733003       0.000000
    104.560864     199.090124     119.715939       0.000000
     77.796565     197.304510     118.490504       0.000000
     85.843395     201.989527     117.196995       0.000000
     99.954702     215.966532     114.448929       0.000000
     85.490752     217.688614     115.522490       0.000000
     93.966107     259.334410     116.617592       0.000000
     89.886711     238.134238     115.885368       0.000000
     93.515035     270.038369     118.472010       0.000000
    119.630743     284.659695     116.786922       0.000000
    103.931202     282.426722     118.412972       0.000000
     84.956904     273.350230     120.637929       0.000000
     97.676069     312.584584     125.677457       0.000000
     89.924418     321.447858     125.889181       0.000000
     83.653386     329.932852     126.225045       0.000000
     77.000515     337.165070     128.443945       0.000000
     95.545775     351.102904     126.388055       0.000000
     86.353600     357.251379     129.271969       0.000000
    100.155110     380.444627     128.801061       0.000000
     81.192773     369.096176     134.233589       0.000000
     79.883333     389.493976     133.021020       0.000000
     97.994517     394.411263     127.645696       0.000000
     89.326861     411.442771     129.194607       0.000000
     92.539929     425.255817     126.063493       0.000000
     84.428003     422.899958     129.501488       0.000000
     77.611317     440.892823     131.052240       0.000000
     79.931791     430.627687     131.155225       0.000000
     89.995113     451.841482     127.849499       0.000000
     95.926666     468.949467     127.868218       0.000000
     91.009148     477.867282     127.707100       0.000000
     94.540420     487.687119     124.608973       0.000000
     90.000000     500.000000     124.606310       0.000000
    100.000000      10.000000     124.647106       0.000000
    100.710689      19.816005     124.967824       0.000000
     92.910346      29.488221     123.115979       0.000000
    100.828424      39.884772     125.416849       0.000000
     98.792901      54.394812     126.147592       0.000000
    105.202790      48.059284     128.412990       0.000000
    106.424483      58.672294     128.920908       0.000000
    101.733622      76.967599     128.703314       0.000000
    103.995219      88.257577     128.675991       0.000000
     95.695337      92.042251     124.601957       0.000000
     99.339073     106.880231     126.121291       0.000000
     91.316003     109.552281     120.085827       0.000000
    105.114578     124.814463     122.961147       0.000000
     98.738241     116.293216     123.228757       0.000000
     65.072801     166.042635     122.348851       0.000000
     97.125013     163.996014     120.526878       0.000000
     80.690343     178.610830     119.027981       0.000000
     90.012819     183.312249     118.595121       0.000000
    113.901805     195.748097     123.834532       0.000000
    107.505534     208.009374     118.846635       0.000000
     95.721212     202.174488     118.707081       0.000000
    109.621879     236.362648     113.700750       0.000000
    102.979937     225.397839     113.774644       0.000000
    105.633351     260.677786     114.513162       0.000000
    103.806446     270.900753     117.232341       0.000000
     94.785105     279.726886     120.017046       0.000000
     97.806383     291.875279     122.782332       0.000000
    112.062540     289.594095     118.623837       0.000000
    106.409045     297.128445     122.790983       0.000000
     89.785105     297.509600     125.319973       0.000000
     97.485439     302.864846     125.429717       0.000000
     98.002157     331.807676     124.119775       0.000000
    115.654592     342.637764     122.648708       0.000000
     88.943714     338.366082     127.261204       0.000000
     97.234992     341.649935     125.030328       0.000000
     89.694739     366.108926     129.940866       0.000000
     98.916874     368.762401     129.274361       0.000000
     91.161019     388.875196     130.047063       0.000000
    112.947163     382.020265     123.731779       0.000000
    105.124673     388.901749     127.159000       0.000000
     95.989308     404.358163     128.762658       0.000000
     97.245918     417.365068     124.969211       0.000000
    114.361754     421.967627     119.952291       0.000000
    102.527857     425.938522     122.020691       0.000000
    106.135845     454.026006     122.920048       0.000000
    105.189625     464.316257     124.786128       0.000000
     96.492839     459.389703     127.537813       0.000000
    100.049633     478.979707     125.892403       0.000000
    104.671074     491.749908     124.328357       0.000000
    100.000000     500.000000     124.380783       0.000000
    110.000000      10.000000     125.224004       0.000000
    115.238173      18.190085     127.314267       0.000000
    106.969339      28.445224     125.472777       0.000000
    117.432685      29.124691     127.908217       0.000000
    116.722218      47.912224     129.394245       0.000000
    115.303607      60.443099     131.967693       0.000000
    113.450082      71.068159     132.033559       0.000000
    109.466545      81.243043     131.493670       0.000000
    119.737650      80.611229     132.220790       0.000000
    103.402791      97.818044     127.374409       0.000000
    115.072208     126.579638     125.253631       0.000000
    108.181611     105.500766     127.732037       0.000000
    118.712155     135.299761     124.771885       0.000000
    107.921750     135.118682     120.798686       0.000000
    108.394960     144.787510     121.164979       0.000000
    126.300527     167.300286     127.644644       0.000000
    104.959969     158.780277     121.220323       0.000000
    101.704507     171.921315     121.600993       0.000000
    100.347354     181.747441     121.081689       0.000000
    128.522657     198.516396     127.405208       0.000000
    114.271343     214.310335     117.993581       0.000000
    111.921778     225.133112     115.272831       0.000000
     93.826784     223.438375     114.238646       0.000000
     92.150422     250.069805     115.747210       0.000000
    117.213895     256.393983     113.200203       0.000000
    123.030078     263.282458     114.247848       0.000000
    113.016838     276.881108     115.938516       0.000000
    120.589603     295.370396     118.807077       0.000000
    114.948936     302.252861     121.129015       0.000000
    105.864203     306.201008     123.350624       0.000000
    106.669086     316.828709     122.286905       0.000000
    105.767321     338.826573     123.002510       0.000000
    124.896651     334.546846     122.394495       0.000000
    114.788761     333.480536     122.379046       0.000000
    106.575960     347.908163     124.308786       0.000000
     99.034350     359.718151     127.015315       0.000000
    110.227636     360.544300     123.172642       0.000000
    106.463844     374.072156     125.337184       0.000000
    112.643733     393.137262     122.604254       0.000000
    104.496991     402.064078     126.283812       0.000000
    105.462722     412.161699     124.073681       0.000000
    114.967014     412.892614     120.634043       0.000000
    120.437851     430.025216     118.420869       0.000000
    110.157809     433.330251     119.286134       0.000000
     98.497826     444.935305     125.960604       0.000000
    113.524797     459.004368     120.315604       0.000000
    129.329153     482.756114     121.687516       0.000000
    107.919518     473.819237     123.661999       0.000000
    110.433214     482.660011     123.633115       0.000000
    110.000000     500.000000     124.792704       0.000000
    120.000000      10.000000     125.732500       0.000000
    124.802379      17.803205     125.900079       0.000000
    132.531231      26.856936     125.257442       0.000000
    113.222995      38.699909     127.040615       0.000000
    128.048778      53.448023     130.491671       0.000000
    135.598425      60.252399     131.354262       0.000000
    138.056387      69.042924     130.959802       0.000000
    124.448048      72.933450     132.942653       0.000000
    113.235668      89.615931     131.163896       0.000000
    116.634473     103.796968     131.439362       0.000000
    109.987306     117.123374     126.484737       0.000000
    124.075578     122.089485     128.124062       0.000000
    135.203043     124.803777     128.626701       0.000000
    101.002191     149.682347     119.516987       0.000000
    113.520760     155.563039     122.646482       0.000000
    139.664728     153.596525     131.113536       0.000000
    111.226223     177.515026     125.901908       0.000000
    113.179064     164.638177     123.249962       0.000000
    134.465197     204.754426     124.494454       0.000000
    118.426999     204.295058     122.648888       0.000000
    123.678267     219.624646     117.794055       0.000000
    126.153913     228.171534     116.414103       0.000000
    130.059777     236.989972     113.988830       0.000000
    100.590059     246.852695     113.505809       0.000000
    109.747037     249.115394     112.629564       0.000000
    113.777309     264.925476     113.873824       0.000000
    124.513972     250.768948     112.981282       0.000000
    123.355639     273.570628     114.228099       0.000000
    129.483084     291.701383     117.400672       0.000000
    130.666814     300.747030     119.149212       0.000000
    117.176514     313.145128     121.261838       0.000000
     99.002250     321.878697     123.934977       0.000000
    121.976503     324.307706     121.001890       0.000000
    130.398396     352.165877     124.506580       0.000000
    125.147114     344.624333     122.361651       0.000000
    117.364336     352.579536     122.812598       0.000000
    132.364970     380.236348     125.304406       0.000000
    120.087528     361.489203     123.592983       0.000000
    114.299668     369.855111     123.107002       0.000000
    117.380003     402.617019     121.009553       0.000000
    124.084771     409.880899     118.129589       0.000000
    123.097691     420.727167     117.546312       0.000000
    129.540960     433.924991     116.235705       0.000000
     89.106881     433.996324     128.066114       0.000000
    110.067368     446.525562     119.695613       0.000000
    116.603945     471.024554     121.342970       0.000000
    126.412539     472.415287     119.798954       0.000000
    141.035210     484.757522     122.975286       0.000000
    114.136354     491.033076     124.922031       0.000000
    120.000000     500.000000     125.296591       0.000000
    130.000000      10.000000     125.022223       0.000000
    137.125075      18.959411     123.747318       0.000000
    127.175140      33.826184     127.980457       0.000000
    146.785432      56.742075     127.530023       0.000000
    126.567372      44.457748     130.237058       0.000000
    132.974670      76.769045     130.896868       0.000000
    126.408110      63.024613     132.808955       0.000000
    124.476729      88.284190     130.426654       0.000000
    125.176344      98.544386     132.329951       0.000000
    118.258705     113.394400     129.900762       0.000000
    133.227338     115.214589     128.868915       0.000000
    142.319104     135.750968     130.556204       0.000000
    132.664061     135.015243     129.472824       0.000000
    116.934159     144.129353     124.103246       0.000000
    121.446235     158.847521     125.539455       0.000000
    134.281615     163.458620     130.994229       0.000000
    119.144249     172.638327     125.395186       0.000000
    109.117092     186.755478     124.056069       0.000000
    137.577743     196.841011     128.034389       0.000000
    144.194672     204.633272     125.790798       0.000000
    124.903108     211.218277     121.457652       0.000000
    135.173499     215.005613     121.361345       0.000000
    137.786179     232.509874     115.642998       0.000000
    132.949812     246.320599     112.014214       0.000000
    117.883445     231.934070     114.247995       0.000000
    118.279380     241.898372     113.149605       0.000000
    141.298813     263.479831     114.293479       0.000000
    129.475343     280.421225     115.052801       0.000000
    137.782191     287.622195     116.338695       0.000000
    139.152473     319.143892     121.187332       0.000000
    141.810581     300.857613     119.279235       0.000000
    109.688830     325.859915     123.241821       0.000000
    124.010904     307.213192     120.420452       0.000000
    129.140907     361.678117     126.108638       0.000000
    124.430975     369.801799     124.355011       0.000000
    133.452958     371.581081     128.731067       0.000000
    144.198711     377.215813     132.738684       0.000000
    123.434755     381.145056     122.549192       0.000000
    123.090885     391.120854     121.156245       0.000000
    126.380112     400.536786     119.796313       0.000000
    135.662284     403.319044     121.579557       0.000000
    134.608843     415.111679     117.129361       0.000000
    118.391084     441.846127     116.787752       0.000000
    102.194133     436.005698     124.174120       0.000000
    120.441286     483.832868     124.131115       0.000000
    134.087166     467.108501     117.455961       0.000000
    125.783961     461.037816     117.929549       0.000000
    136.591622     476.830670     120.486380       0.000000
    124.812355     491.775238     124.199182       0.000000
    130.000000     500.000000     124.882916       0.000000
    140.000000      10.000000     124.912188       0.000000
    141.915548      27.749692     124.561883       0.000000
    138.234237      50.368713     130.275745       0.000000
    137.848067      38.108226     128.060447       0.000000
    150.590818      66.074363     127.445143       0.000000
    160.015414      66.823516     126.896084       0.000000
    144.470282      75.339927     130.389397       0.000000
    132.439740      92.996590     130.713947       0.000000
    143.136859      92.373593     130.193995       0.000000
    127.227170     107.152492     130.249082       0.000000
    134.919313     101.910664     129.913925       0.000000
    144.475588     124.114069     128.518972       0.000000
    152.037962     136.177402     132.574241       0.000000
    127.714534     142.583054     127.411409       0.000000
    126.944031     151.775454     128.230684       0.000000
    139.312637     144.364063     131.155123       0.000000
    120.575319     187.753973     127.117169       0.000000
    152.909878     178.482898     132.102595       0.000000
    130.065514     186.800858     129.331207       0.000000
    144.944858     190.843185     130.087220       0.000000
    151.718626     198.731055     128.579979       0.000000
    133.692318     223.279378     118.108111       0.000000
    144.859237     223.650844     120.504575       0.000000
    131.738960     260.933575     113.701807       0.000000
    142.206376     252.059921     113.605653       0.000000
    132.329805     269.942693     113.949946       0.000000
    145.140481     281.764350     116.334358       0.000000
    148.365596     293.418334     119.959280       0.000000
    145.155522     312.164060     121.732097       0.000000
    162.352581     300.655775     124.358278       0.000000
    135.919136     309.120944     121.469846       0.000000
    129.379248     318.066245     120.606673       0.000000
    143.698704     334.092952     121.925459       0.000000
    138.181294     342.514119     123.723473       0.000000
    142.376501     350.435631     126.999881       0.000000
    148.104777     342.260805     126.143049       0.000000
    140.998343     367.729925     134.095981       0.000000
    141.800751     386.706537     128.169290       0.000000
    132.566764     391.588018     122.597002       0.000000
    143.249457     411.544068     119.561165       0.000000
    149.554417     428.836368     117.909635       0.000000
    147.037880     438.695468     115.049970       0.000000
    132.964796     424.387654     115.769385       0.000000
    134.577338     451.704032     117.570464       0.000000
    120.951325     450.356878     118.655640       0.000000
    130.535612     443.186317     116.101740       0.000000
    145.638096     474.305024     120.264665       0.000000
    153.157443     482.990177     121.289354       0.000000
    134.419269     490.905797     124.240428       0.000000
    140.000000     500.000000     124.583882       0.000000
    150.000000      10.000000     124.481238       0.000000
    146.354375      18.483485     124.078847       0.000000
    146.605537      36.325563     125.363035       0.000000
    155.911633      39.129827     126.855993       0.000000
    156.206198      48.679877     126.870758       0.000000
    146.322686      46.953651     127.961176       0.000000
    139.276872      83.454317     130.600647       0.000000
    154.918960      74.792075     128.511841       0.000000
    151.365992      83.678142     130.582360       0.000000
    153.368906      93.997842     130.615434       0.000000
    152.072802     113.895736     129.377525       0.000000
    142.235457     113.150080     129.287740       0.000000
    166.155160     127.233787     133.320211       0.000000
    148.280605     145.597238     132.011528       0.000000
    160.172502     145.589917     134.954864       0.000000
    146.232779     160.167979     132.860222       0.000000
    138.786764     171.683062     131.637205       0.000000
    129.797641     177.523971     129.489840       0.000000
    155.379202     189.013213     131.814246       0.000000
    160.736023     197.395987     129.291319       0.000000
    145.471273     213.222461     123.179732       0.000000
    152.859875     208.540519     126.140242       0.000000
    154.815672     226.550678     117.357230       0.000000
    162.290005     233.982585     118.047152       0.000000
    141.504198     242.535299     114.933493       0.000000
    151.944338     252.196942     114.928173       0.000000
    150.302688     263.171392     115.497251       0.000000
    164.120279     276.034748     123.525308       0.000000
    140.909276     273.585308     114.572855       0.000000
    153.807951     300.802615     121.070772       0.000000
    158.085574     308.674987     122.172772       0.000000
    135.328696     329.953183     120.849120       0.000000
    155.821821     319.280353     122.489051       0.000000
    158.847534     341.299772     127.325321       0.000000
    153.806453     332.029852     122.812402       0.000000
    150.252538     351.210985     132.565195       0.000000
    137.572479     357.823105     128.901451       0.000000
    143.513076     398.329253     125.211105       0.000000
    155.306539     385.636838     135.497263       0.000000
    141.635201     422.290944     118.089290       0.000000
    159.230205     429.410439     118.262425       0.000000
    154.613890     447.779714     115.111476       0.000000
    139.217974     430.961084     115.399868       0.000000
    139.629312     444.554975     115.380615       0.000000
    145.818540     453.783125     115.273016       0.000000
    142.298332     462.977871     117.002642       0.000000
    160.690397     473.750364     118.520580       0.000000
    165.147124     482.807066     120.549433       0.000000
    147.269391     491.183085     124.101797       0.000000
    150.000000     500.000000     124.206167       0.000000
    160.000000      10.000000     125.486141       0.000000
    158.813150      19.403513     126.195359       0.000000
    152.720397      27.637889     125.838350       0.000000
    165.718406      40.427131     125.135819       0.000000
    177.303317      50.772229     124.746704       0.000000
    155.851522      58.777455     126.765604       0.000000
    170.424571      65.699623     125.498809       0.000000
    164.653698      76.223573     128.469051       0.000000
    161.394362      86.500109     129.848373       0.000000
    158.316065     107.386384     129.563526       0.000000
    162.767570     116.239082     131.358872       0.000000
    155.228801     125.201527     131.358857       0.000000
    172.766442     134.764753     133.435112       0.000000
    161.752696     135.799924     134.489890       0.000000
    166.689561     153.065056     134.803362       0.000000
    147.831489     170.460158     132.722314       0.000000
    142.740420     180.346999     130.978795       0.000000
    159.493451     172.120162     132.285820       0.000000
    166.540700     178.868531     131.669379       0.000000
    164.600080     216.428313     122.029682       0.000000
    167.592193     207.930632     125.713013       0.000000
    192.137090     223.789897     117.974318       0.000000
    164.008077     224.457533     117.946826       0.000000
    171.328771     238.442121     118.168824       0.000000
    147.014664     232.267177     116.246689       0.000000
    162.581828     243.068152     117.315638       0.000000
    171.807664     271.207336     124.580563       0.000000
    154.828580     282.380771     120.824940       0.000000
    159.303740     290.680721     124.313847       0.000000
    171.154151     298.365089     126.259552       0.000000
    169.885620     308.747053     124.273042       0.000000
    148.175291     324.802364     121.637967       0.000000
    162.539649     329.286510     121.765895       0.000000
    164.788425     348.903013     133.717870       0.000000
    158.773488     355.420128     135.535320       0.000000
    154.776274     367.015604     137.286867       0.000000
    147.994160     359.904978     136.068910       0.000000
    152.319225     376.363571     137.252423       0.000000
    151.643049     392.957666     129.487933       0.000000
    148.843208     405.639637     123.764100       0.000000
    168.125665     410.258356     127.031013       0.000000
    149.544813     418.311325     120.718150       0.000000
    168.203561     441.255095     118.204140       0.000000
    177.085335     436.955216     120.527529       0.000000
    163.762976     453.074673     115.125640       0.000000
    172.395503     455.886925     117.277693       0.000000
    154.837190     459.371665     114.869388       0.000000
    170.563072     468.700891     118.022788       0.000000
    157.995656     490.664848     121.813827       0.000000
    160.000000     500.000000     123.354628       0.000000
    170.000000      10.000000     125.539055       0.000000
    161.579781      30.970524     126.065460       0.000000
    172.964626      31.326902     126.455227       0.000000
    187.686692      34.154258     126.541468       0.000000
    175.666777      40.344123     124.265955       0.000000
    168.104530      49.121723     125.907463       0.000000
    165.495610      57.745361     125.573040       0.000000
    173.692357      77.457848     127.422010       0.000000
    170.056606      89.651528     127.945659       0.000000
    163.610606      95.973002     129.902997       0.000000
    183.774479     118.357059     131.704463       0.000000
    147.141067     105.387161     129.397290       0.000000
    173.249140     120.740533     131.792990       0.000000
    171.383913     145.096681     135.774282       0.000000
    157.134010     161.896937     132.888775       0.000000
    154.207487     153.299515     134.294323       0.000000
    183.136658     170.776463     129.692649       0.000000
    173.677529     172.322945     131.697744       0.000000
    166.214648     188.822637     129.647351       0.000000
    174.221229     197.966602     127.998343       0.000000
    154.300748     217.639922     121.946531       0.000000
    182.817314     222.758633     119.550040       0.000000
    176.144391     229.926733     117.062352       0.000000
    166.564119     253.895263     119.513820       0.000000
    151.826865     241.604770     115.411775       0.000000
    151.160881     272.787001     117.944040       0.000000
    159.374983     267.643632     120.253969       0.000000
    177.282528     279.577093     129.117381       0.000000
    166.532714     285.541906     127.108675       0.000000
    175.154346     290.120680     128.338268       0.000000
    180.028437     301.134343     127.425083       0.000000
    164.645670     317.077339     121.641635       0.000000
    167.943815     339.067362     126.368659       0.000000
    173.960917     349.420735     131.791188       0.000000
    168.158120     362.190924     136.007543       0.000000
    174.378822     369.192529     135.322824       0.000000
    163.560946     373.096264     138.816319       0.000000
    165.997694     384.346766     135.676728       0.000000
    161.177067     392.731880     133.463341       0.000000
    156.389789     401.515212     128.770309       0.000000
    158.495840     409.906951     125.128289       0.000000
    178.515916     404.447400     129.516683       0.000000
    158.552858     418.850961     121.929574       0.000000
    158.658042     438.883827     116.023064       0.000000
    180.631140     459.300910     120.466258       0.000000
    152.581908     468.472469     117.673147       0.000000
    193.092968     456.490694     117.548437       0.000000
    178.815801     481.462262     119.897986       0.000000
    168.415546     491.251042     121.800420       0.000000
    170.000000     500.000000     123.327436       0.000000
    180.000000      10.000000     125.437148       0.000000
    168.026278      20.689326     126.918559       0.000000
    176.945219      19.324502     126.951249       0.000000
    181.448710      27.520171     127.018494       0.000000
    185.846962      46.782348     124.454912       0.000000
    177.859377      60.475893     124.967388       0.000000
    179.198805      88.528000     126.390388       0.000000
    184.013335      96.328573     127.954047       0.000000
    169.733658     108.265838     130.631275       0.000000
    178.618994     110.936369     131.413914       0.000000
    192.170170     112.987181     130.927071       0.000000
    189.077012     127.329726     132.259195       0.000000
    179.545202     128.647171     132.337326       0.000000
    181.696035     145.136405     134.607803       0.000000
    177.713712     153.272534     133.336824       0.000000
    167.345829     163.553709     132.891184       0.000000
    176.016937     183.908143     129.503756       0.000000
    182.858605     192.281482     127.186594       0.000000
    175.179101     212.576835     123.395782       0.000000
    172.817942     220.983914     120.137986       0.000000
    186.994156     214.290292     121.606654       0.000000
    195.713444     209.004297     119.472049       0.000000
    195.678746     233.487842     116.849408       0.000000
    180.356800     240.419975     118.958742       0.000000
    170.110068     261.562744     122.905811       0.000000
    158.585454     257.773404     117.508751       0.000000
    181.504194     271.357079     126.949456       0.000000
    186.420183     285.158437     130.387587       0.000000
    185.315377     294.142917     129.579390       0.000000
    188.646132     306.324957     126.165132       0.000000
    183.913188     314.169753     123.719746       0.000000
    173.922833     317.959298     121.723291       0.000000
    172.650966     330.349810     120.887755       0.000000
    177.778632     341.588766     126.144034       0.000000
    183.692783     350.543584     128.412185       0.000000
    183.544613     365.075476     131.733884       0.000000
    187.832075     373.648770     131.046456       0.000000
    172.862840     378.148333     136.665463       0.000000
    166.484685     401.623921     132.349625       0.000000
    171.708829     393.531001     134.905785       0.000000
    190.599693     391.939861     129.243867       0.000000
    189.777685     400.843120     128.053428       0.000000
    169.394061     420.066363     123.266463       0.000000
    170.862843     430.335352     120.830953       0.000000
    163.082495     463.089230     115.660553       0.000000
    185.946208     449.176775     119.168323       0.000000
    191.150307     470.409878     118.318246       0.000000
    181.171560     471.670028     118.986573       0.000000
    177.996744     491.162255     122.269291       0.000000
    180.000000     500.000000     123.648954       0.000000
    190.000000      10.000000     124.187490       0.000000
    189.979137      19.807707     124.969590       0.000000
    201.278938      35.416020     120.852525       0.000000
    195.228797      49.650890     122.012452       0.000000
    189.672617      69.949539     124.321240       0.000000
    188.991780      60.324887     122.680448       0.000000
    185.593665      78.367590     126.337235       0.000000
    189.156302      88.379314     125.370794       0.000000
    194.450563      97.244204     127.513345       0.000000
    173.600422     100.236581     129.196744       0.000000
    187.831691     104.159839     130.293815       0.000000
    198.897495     130.433372     132.208103       0.000000
    186.550319     136.905233     133.312108       0.000000
    199.562656     157.018540     129.340614       0.000000
    191.610080     174.185869     126.271586       0.000000
    200.824362     177.415718     123.376742       0.000000
    202.077902     186.865703     120.904264       0.000000
    184.962838     181.068031     127.321379       0.000000
    193.532436     184.102395     123.546115       0.000000
    193.802949     194.059161     122.816477       0.000000
    181.093265     204.111282     125.156564       0.000000
    202.675227     198.297010     119.191749       0.000000
    200.340332     216.843339     117.153708       0.000000
    184.708049     249.114312     121.085026       0.000000
    196.970378     249.648647     122.614411       0.000000
    179.283033     261.677312     125.509901       0.000000
    206.398188     269.072714     128.753889       0.000000
    198.451642     276.169430     131.064396       0.000000
    206.867898     294.177675     130.984837       0.000000
    196.727521     287.521127     131.217214       0.000000
    181.077997     324.552285     121.288901       0.000000
    191.193362     331.487750     122.560922       0.000000
    182.411237     333.965998     121.546451       0.000000
    189.430503     344.601913     124.599194       0.000000
    198.463716     350.587569     125.172487       0.000000
    177.153890     358.283769     133.041370       0.000000
    192.789241     366.438179     128.583577       0.000000
    191.707068     382.440387     129.133228       0.000000
    179.817200     383.625631     134.650079       0.000000
    182.287036     395.649397     131.914952       0.000000
    197.717704     409.595831     125.328527       0.000000
    178.464816     418.250868     124.725231       0.000000
    186.865516     409.719971     127.054360       0.000000
    181.179700     427.710625     121.691830       0.000000
    175.299752     446.824619     118.118508       0.000000
    198.100127     448.537504     117.432479       0.000000
    198.273042     477.241108     120.658251       0.000000
    189.237118     479.768126     120.986754       0.000000
    190.047295     489.096004     122.566160       0.000000
    190.000000     500.000000     123.380224       0.000000
    200.000000      10.000000     124.166526       0.000000
    204.223519      21.592934     124.241563       0.000000
    192.938884      41.112655     123.810968       0.000000
    196.312692      26.975712     124.112298       0.000000
    200.736829      58.307864     121.339400       0.000000
    179.675777      70.324317     125.670283       0.000000
    195.611104      78.890844     124.786153       0.000000
    209.982382      89.348281     124.448929       0.000000
    199.873462      87.983261     125.472958       0.000000
    205.076744      99.178618     126.752121       0.000000
    198.327430     106.677011     129.028774       0.000000
    210.102350     124.961371     130.741901       0.000000
    193.675736     144.466442     133.794162       0.000000
    187.921502     152.015452     132.954453       0.000000
    201.770263     148.347086     132.285576       0.000000
    209.414929     162.493681     126.269702       0.000000
    178.251295     162.488933     131.754701       0.000000
    220.003413     173.516529     117.761877       0.000000
    219.983567     193.952631     112.965448       0.000000
    210.775117     181.435162     119.500482       0.000000
    213.474057     201.040280     114.116928       0.000000
    189.945968     202.436552     123.420419       0.000000
    204.656520     207.120333     117.394423       0.000000
    185.780783     231.317594     118.130014       0.000000
    204.274232     241.641562     119.342510       0.000000
    189.474687     239.499887     119.853480       0.000000
    175.045039     249.803359     120.267139       0.000000
    188.921562     276.371741     129.087868       0.000000
    193.321947     264.655602     128.144106       0.000000
    194.232612     298.089401     129.616550       0.000000
    192.933925     319.546513     122.450608       0.000000
    200.905506     329.372721     121.845008       0.000000
    213.691439     329.222091     120.484647       0.000000
    199.209551     340.101969     124.099168       0.000000
    207.646899     347.627585     124.102394       0.000000
    189.049834     358.209906     128.767686       0.000000
    206.760323     379.933448     126.774503       0.000000
    200.283134     386.270809     127.242444       0.000000
    198.184729     375.212415     127.476082       0.000000
    208.855930     405.266695     125.675163       0.000000
    199.253791     400.653353     126.747202       0.000000
    198.006871     418.287098     122.445788       0.000000
    194.561969     426.723601     121.880046       0.000000
    188.867097     419.797763     122.747381       0.000000
    186.056075     437.238037     119.645262       0.000000
    200.585814     463.070262     118.776101       0.000000
    206.117445     472.056537     119.929660       0.000000
    206.249604     482.347116     121.519423       0.000000
    199.428269     490.666377     123.939131       0.000000
    200.000000     500.000000     124.192951       0.000000
    210.000000      10.000000     124.132713       0.000000
    214.554015      18.297204     124.138549       0.000000
    220.706633      36.001930     118.892861       0.000000
    209.947535      30.113985     121.853385       0.000000
    208.836704      53.735961     121.259135       0.000000
    199.583256      67.342323     122.223310       0.000000
    222.872702      62.332218     117.775852       0.000000
    204.649426      76.086351     122.443330       0.000000
    229.438730      83.235005     118.654653       0.000000
    214.797894      96.867122     125.619319       0.000000
    212.634067     106.831507     128.324669       0.000000
    204.552675     115.170069     129.465436       0.000000
    198.182674     121.485674     131.334403       0.000000
    203.689333     138.425636     132.408496       0.000000
    212.234339     143.401201     128.564401       0.000000
    190.266582     163.695033     130.112812       0.000000
    210.457963     172.042470     123.018243       0.000000
    217.464509     166.256227     123.295702       0.000000
    229.982083     192.589751     111.654938       0.000000
    210.343897     191.809433     115.795103       0.000000
    226.909295     212.980952     111.624624       0.000000
    221.755371     204.954436     110.650969       0.000000
    212.257323     219.926028     115.019100       0.000000
    204.479863     227.739179     116.088747       0.000000
    214.622353     247.344749     120.676361       0.000000
    206.034311     250.632322     122.973238       0.000000
    188.232040     256.814476     125.101711       0.000000
    212.270086     276.948195     131.657282       0.000000
    215.984009     291.951819     131.342374       0.000000
    204.890165     302.599196     128.102445       0.000000
    197.801408     310.412740     125.113457       0.000000
    203.039433     320.476701     122.961694       0.000000
    224.120406     318.141228     122.862234       0.000000
    207.875678     337.243695     122.126485       0.000000
    216.093293     351.072035     122.397384       0.000000
    199.051629     359.678611     126.308142       0.000000
    215.551157     382.960140     124.815017       0.000000
    208.558046     392.925800     125.635585       0.000000
    233.215379     392.840512     124.782773       0.000000
    220.032344     396.125050     125.523486       0.000000
    206.245864     413.983902     124.600921       0.000000
    217.758796     417.371590     122.816502       0.000000
    195.012202     440.306751     120.153390       0.000000
    206.370525     444.139602     117.977163       0.000000
    216.403740     447.354450     118.141019       0.000000
    205.903088     453.134057     117.652177       0.000000
    213.559300     462.413498     118.153780       0.000000
    215.733564     480.944113     121.494355       0.000000
    208.969479     490.703097     123.611204       0.000000
    210.000000     500.000000     124.192385       0.000000
    220.000000      10.000000     123.915619       0.000000
    225.294998      18.847470     123.502716       0.000000
    218.284263      26.544589     120.811234       0.000000
    212.623342      40.650968     119.618091       0.000000
    203.222008      45.533378     121.072976       0.000000
    207.988953      63.561975     120.404359       0.000000
