     28.922409     396.847908     126.669404       0.000000
     40.618518     379.040579     129.592203       0.000000
     34.132415     405.299981     128.198497       0.000000
     46.231213     419.915216     128.264323       0.000000
     37.356824     426.756964     125.865895       0.000000
     33.064108     438.842674     124.214341       0.000000
     39.323492     445.171803     125.587726       0.000000
     50.805299     451.846853     130.024657       0.000000
     28.598550     469.937937     124.007419       0.000000
     56.308385     467.403828     130.939578       0.000000
     47.352165     460.264386     128.046302       0.000000
     38.589195     477.854240     126.143241       0.000000
     40.000000     500.000000     119.328992       0.000000
     50.000000      10.000000     118.096244       0.000000
     44.837942      18.495297     115.975173       0.000000
     40.603123      40.193942     113.814514       0.000000
     66.217329      27.430110     119.368838       0.000000
     50.986725      49.082473     113.801835       0.000000
     61.802226      62.512132     115.682761       0.000000
     45.922843      67.221437     113.144244       0.000000
     42.946044      75.591566     111.492195       0.000000
     51.740847      87.941863     110.387060       0.000000
     51.048077     108.570706     109.046735       0.000000
     46.354502     117.167200     111.885916       0.000000
     51.513409     139.160406     117.741203       0.000000
     38.271878     143.706762     122.910210       0.000000
     54.715337     163.995172     125.504541       0.000000
     46.078273     160.615353     127.293849       0.000000
     63.700643     172.924766     121.683398       0.000000
     51.427740     175.438889     124.502649       0.000000
     41.395659     179.260791     130.497446       0.000000
     36.875641     188.587150     132.909355       0.000000
     41.232934     198.377568     131.880866       0.000000
     53.057693     207.227385     127.609836       0.000000
     45.079993     213.232759     132.413499       0.000000
     51.752275     221.084084     128.745794       0.000000
     53.182429     248.196266     127.040534       0.000000
     60.182684     242.842530     124.477699       0.000000
     59.603035     254.604335     127.328901       0.000000
     44.579579     278.239074     129.005678       0.000000
     39.781938     296.241869     126.231998       0.000000
     52.931522     272.801954     129.593303       0.000000
     61.898453     274.870210     128.222244       0.000000
     48.555733     289.393149     126.515202       0.000000
     47.290798     312.972216     126.323122       0.000000
     56.597242     331.333961     129.446178       0.000000
     43.889133     356.250664     131.614428       0.000000
     58.056156     359.493634     132.493522       0.000000
     52.541871     349.882013     132.351893       0.000000
     48.424043     374.084070     133.001756       0.000000
     39.849157     368.824802     130.342311       0.000000
     33.938818     388.133444     127.446262       0.000000
     48.003162     400.886549     129.226356       0.000000
     43.638328     411.044720     128.737500       0.000000
     56.073078     418.579622     131.056620       0.000000
     46.277791     429.864657     128.875620       0.000000
     40.297523     454.963511     126.064830       0.000000
     61.182710     436.275876     134.365635       0.000000
     60.586971     448.411194     133.734314       0.000000
     64.635968     471.208851     130.866358       0.000000
     48.902714     480.116254     127.384039       0.000000
     43.724573     487.236907     123.316374       0.000000
     50.000000     500.000000     119.993653       0.000000
     60.000000      10.000000     120.209913       0.000000
     57.639346      28.996648     116.579337       0.000000
     52.006413      39.657120     115.268139       0.000000
     65.560915      36.671966     119.802508       0.000000
     67.853934      49.449254     117.643278       0.000000
     58.858854      53.556894     114.515796       0.000000
     54.718148      70.559299     113.310949       0.000000
     46.458901      97.606913     110.111814       0.000000
     62.527275      85.084344     112.132887       0.000000
     57.700053      99.394287     110.071342       0.000000
     70.384735     106.337516     110.238983       0.000000
     60.441615     111.493073     108.780873       0.000000
     67.357022     116.664814     111.594256       0.000000
     56.687876     121.100302     110.477623       0.000000
     56.342549     147.156674     118.575010       0.000000
     53.347040     155.140949     123.626231       0.000000
     62.575347     153.686029     120.586584       0.000000
     56.745993     189.835275     123.726280       0.000000
     47.769561     186.234176     128.269547       0.000000
     53.097801     197.861015     126.403283       0.000000
     61.617865     204.857548     123.193173       0.000000
     60.058904     214.692361     125.678563       0.000000
     46.931415     231.550444     129.403708       0.000000
     64.089416     234.702753     121.483572       0.000000
     73.788636     238.284003     118.850088       0.000000
     67.013602     249.543400     123.972947       0.000000
     54.684910     262.747505     128.031113       0.000000
     71.209794     274.089320     128.094732       0.000000
     57.356256     285.760853     126.864152       0.000000
     61.138304     294.553383     125.527674       0.000000
     55.645122     316.283416     127.026171       0.000000
     67.868375     311.939682     126.025867       0.000000
     75.031389     325.560260     126.083007       0.000000
     64.275886     352.684483     130.870509       0.000000
     66.010322     366.802647     133.476842       0.000000
     48.453607     364.968977     132.327763       0.000000
     62.889162     381.359555     135.517599       0.000000
     52.208203     382.940897     133.869673       0.000000
     52.506679     392.978368     132.533314       0.000000
     60.355776     401.106832     133.887352       0.000000
     57.217491     409.439530     132.167146       0.000000
     65.134273     417.157760     131.891589       0.000000
     64.863269     427.363278     134.125589       0.000000
     53.578757     442.949147     131.114205       0.000000
     45.731157     439.165610     128.630018       0.000000
     59.048136     457.351124     131.761170       0.000000
     74.634595     470.131892     132.356528       0.000000
     58.167653     480.395878     128.270967       0.000000
     53.208885     489.976879     124.879374       0.000000
     60.000000     500.000000     122.862794       0.000000
     70.000000      10.000000     122.592865       0.000000
     55.997672      17.901677     116.892798       0.000000
     70.522944      19.279911     120.817122       0.000000
     79.606802      54.026952     121.052155       0.000000
     72.141727      58.623559     118.233099       0.000000
     75.275509      67.222107     118.072506       0.000000
     54.953063      79.575357     111.634112       0.000000
     64.242065      72.918356     115.363511       0.000000
     71.774386      78.571246     115.665948       0.000000
     66.891156      93.855677     111.917924       0.000000
     77.311696     112.380121     112.699917       0.000000
     73.712333     122.941379     114.044723       0.000000
     67.356610     129.892642     114.965646       0.000000
     78.265683     143.282213     118.101233       0.000000
     57.028108     130.855970     114.488896       0.000000
     66.119851     142.659084     116.731752       0.000000
     75.678877     170.452365     121.881543       0.000000
     82.380725     163.188153     122.006909       0.000000
     65.193231     181.915578     121.226267       0.000000
     65.004299     195.071620     121.214498       0.000000
     65.734376     221.208380     122.308559       0.000000
     56.981630     229.890067     124.341092       0.000000
     75.075716     220.975494     117.331748       0.000000
     70.994457     228.646238     120.016703       0.000000
     82.250226     241.884968     116.498917       0.000000
     70.288220     258.431625     125.418323       0.000000
     80.293502     252.016639     119.233858       0.000000
     63.725973     264.976138     126.894333       0.000000
     80.626400     292.549795     124.357277       0.000000
     67.684564     282.393051     127.838522       0.000000
     60.005014     307.558783     125.624716       0.000000
     67.460881     302.096625     125.735338       0.000000
     66.017402     331.486671     127.834326       0.000000
     64.815182     321.173873     127.989773       0.000000
     64.401506     341.906758     129.411092       0.000000
     73.657521     348.749416     129.242648       0.000000
     57.810541     372.927896     134.576665       0.000000
     61.401791     392.018834     134.406525       0.000000
     69.978467     396.134672     135.521889       0.000000
     71.244782     386.400454     137.135022       0.000000
     68.035016     407.110478     131.865126       0.000000
     73.671592     420.118475     131.991450       0.000000
     75.186229     430.318550     133.829379       0.000000
     69.533369     444.109547     134.766451       0.000000
     67.331924     461.509735     133.200008       0.000000
     77.214647     461.304843     133.340225       0.000000
     69.283704     479.478793     129.603080       0.000000
     67.281706     487.700697     125.983432       0.000000
     76.083854     486.957608     128.213139       0.000000
     70.000000     500.000000     124.968957       0.000000
     80.000000      10.000000     124.264722       0.000000
     89.839589      19.575714     125.207487       0.000000
     79.969813      21.251986     122.778814       0.000000
     75.583272      29.451019     120.284318       0.000000
     82.403306      45.148088     121.784700       0.000000
     84.446928      65.878656     121.884822       0.000000
     91.219499      71.671619     124.666826       0.000000
     81.179942      76.702890     118.122822       0.000000
     82.187288      91.697725     118.377267       0.000000
     73.808558      89.097935     115.979460       0.000000
     76.786184      97.992506     113.734328       0.000000
     85.385568     115.205906     116.418527       0.000000
     82.306346     125.890451     116.543749       0.000000
     87.630562     148.726452     120.609432       0.000000
     86.257005     137.351955     118.515431       0.000000
     71.154766     150.822969     119.231353       0.000000
     73.504903     161.622997     121.546056       0.000000
     73.775143     190.352145     118.724796       0.000000
     84.344914     191.023056     117.786917       0.000000
     72.228094     212.260233     119.455647       0.000000
     81.923996     210.285297     117.114766       0.000000
     90.736459     208.010195     116.147378       0.000000
     83.395470     233.060361     113.497677       0.000000
     96.763094     233.815707     112.141148       0.000000
     83.205359     260.926390     120.459164       0.000000
     76.699894     265.873332     125.512550       0.000000
     77.458103     283.175839     128.375772       0.000000
     86.851063     285.636036     123.162394       0.000000
     69.913138     292.560116     126.447702       0.000000
     77.471444     300.954575     125.745282       0.000000
     86.425261     311.351424     125.885552       0.000000
     76.900858     310.739648     126.533234       0.000000
     82.517012     319.989360     125.185719       0.000000
     54.937995     340.336832     130.849106       0.000000
     83.032176     344.935404     126.257435       0.000000
     71.578469     358.568953     130.568072       0.000000
     87.525859     373.871386     132.631753       0.000000
     79.260314     380.261402     135.200814       0.000000
     71.973822     374.616339     135.226690       0.000000
     76.753127     402.285596     131.975754       0.000000
     85.783718     399.272359     130.030729       0.000000
     76.375311     411.577615     130.640912       0.000000
     54.871968     429.748980     131.952032       0.000000
     88.703821     444.231438     128.670148       0.000000
     74.178335     452.495343     134.514178       0.000000
     88.246825     458.070759     130.031025       0.000000
     84.071363     466.602415     130.684970       0.000000
     79.296756     478.836265     131.326274       0.000000
     85.432269     490.273800     126.186982       0.000000
     80.000000     500.000000     125.234253       0.000000
     90.000000      10.000000     125.689948       0.000000
     84.557390      32.634498     121.666148       0.000000
     91.235018      42.017903     123.228563       0.000000
     74.414718      41.153123     119.893909       0.000000
     88.391014      52.149677     123.805438       0.000000
     94.603979      61.294684     127.968484       0.000000
    103.468705      62.257216     131.697902       0.000000
     94.840481      79.940224     124.815839       0.000000
     88.070910      85.217376     121.333642       0.000000
     90.334525      99.914654     120.658243       0.000000
     82.104295     105.103481     116.006111       0.000000
     92.878121     119.244410     120.076805       0.000000
     95.045982     131.833570     121.304523       0.000000
     96.886596     142.084223     122.519475       0.000000
     76.815642     133.696247     115.725739       0.000000
     88.982020     171.725855     121.074582       0.000000
     79.938395     154.029336     120.612977       0.000000
     74.808627     180.591559     119.872119       0.000000
     94.835434     188.968725     119.108039       0.000000
    104.016022     191.376109     120.475419       0.000000
     74.376593     201.839650     119.171210       0.000000
     84.818189     200.492179     118.569422       0.000000
    100.375393     212.826835     114.898172       0.000000
     83.633526     220.164845     113.844977       0.000000
     92.817883     259.775313     115.159102       0.000000
     90.780506     241.397049     113.110630       0.000000
     90.076035     268.975471     119.099622       0.000000
    122.227667     281.012744     115.120331       0.000000
    101.172473     279.600342     117.786235       0.000000
     83.619516     274.751281     125.089383       0.000000
     97.991637     310.453273     123.282521       0.000000
     88.059699     327.716874     125.218375       0.000000
     80.428770     332.961851     126.823559       0.000000
     73.572422     339.506603     127.058984       0.000000
     91.405867     353.231655     127.915349       0.000000
     81.682547     354.746541     129.171121       0.000000
     98.489012     379.022228     129.244148       0.000000
     77.186347     366.986210     132.263147       0.000000
     79.601961     390.620278     133.853651       0.000000
     94.652810     394.723184     128.624875       0.000000
     87.914186     407.884288     128.303096       0.000000
     92.603049     424.445591     126.855771       0.000000
     83.467785     418.338086     129.283146       0.000000
     78.155089     441.500674     132.849074       0.000000
     86.111209     432.424433     129.621553       0.000000
     83.074518     450.823045     131.924150       0.000000
     93.688102     469.330186     127.828742       0.000000
     88.346233     477.508389     130.451172       0.000000
     94.488956     487.828832     124.808574       0.000000
     90.000000     500.000000     125.190148       0.000000
    100.000000      10.000000     124.773385       0.000000
     99.161589      20.056655     125.077117       0.000000
     92.722616      28.337564     123.614563       0.000000
     99.071038      37.412254     124.347348       0.000000
     97.898789      50.173429     127.879801       0.000000
    106.379505      43.455379     128.984937       0.000000
    106.984655      52.477897     131.405998       0.000000
    100.611716      70.575510     129.777706       0.000000
    103.382053      90.014272     125.686645       0.000000
     94.749615      91.913129     122.466412       0.000000
    101.291103     104.503165     123.070818       0.000000
     92.542767     108.945785     119.896553       0.000000
    103.241629     127.991804     123.234882       0.000000
     99.920163     113.612919     123.337607       0.000000
     64.611332     163.593837     122.110995       0.000000
     92.103681     162.763283     121.656390       0.000000
     85.221060     182.027505     119.770570       0.000000
     96.732191     177.727923     119.243878       0.000000
    116.756347     198.699532     121.970975       0.000000
    107.006425     200.515555     118.342180       0.000000
     97.820101     197.957746     118.288195       0.000000
    106.498520     237.382641     110.457766       0.000000
    102.851096     222.600034     113.006260       0.000000
    101.015428     255.076428     110.440011       0.000000
    101.577511     267.028491     113.549380       0.000000
     91.473678     278.185029     120.954108       0.000000
     95.237839     289.641457     122.357644       0.000000
    112.236755     284.615373     115.693601       0.000000
    106.857654     292.357336     119.645957       0.000000
     87.989431     299.030874     122.723446       0.000000
    101.584080     299.823438     121.438944       0.000000
     97.610349     331.241738     124.005209       0.000000
    114.237648     343.039334     123.687048       0.000000
     92.306482     339.636148     124.165425       0.000000
     99.983481     345.520986     126.645114       0.000000
     85.922716     364.631450     131.747925       0.000000
     98.394680     369.276346     131.722848       0.000000
     91.364914     384.811985     131.123833       0.000000
    111.657264     380.971060     126.348264       0.000000
    102.994554     387.757972     127.113400       0.000000
     97.818748     406.960452     124.558763       0.000000
     93.536548     414.958660     126.646573       0.000000
    112.172111     420.310970     119.991243       0.000000
    101.819573     427.526490     124.266222       0.000000
    104.829938     451.994234     124.718535       0.000000
    101.994950     461.272779     124.006036       0.000000
     95.707485     451.605718     128.150253       0.000000
    101.145259     480.469778     125.226334       0.000000
    105.027971     488.775316     123.680741       0.000000
    100.000000     500.000000     124.397813       0.000000
    110.000000      10.000000     124.654342       0.000000
    110.341968      19.338325     124.755365       0.000000
    106.337103      30.006632     124.697045       0.000000
    115.566179      27.403608     126.317936       0.000000
    116.967565      50.543974     130.739101       0.000000
    115.412465      59.654964     132.147133       0.000000
    113.086518      68.330028     133.098315       0.000000
    107.116474      78.103402     130.316155       0.000000
    116.156086      78.602550     131.708780       0.000000
    109.538192      96.689756     127.675899       0.000000
    113.025346     125.645449     126.773355       0.000000
    109.395369     109.433928     126.473307       0.000000
    116.249960     135.463875     125.969550       0.000000
    105.578384     138.443523     123.173689       0.000000
    108.973668     146.741292     124.099865       0.000000
    120.479898     168.423805     126.173989       0.000000
    103.429200     159.770183     123.580903       0.000000
    102.579995     170.260944     122.412617       0.000000
    104.615495     181.206869     121.919837       0.000000
    127.538014     197.059423     126.633985       0.000000
    109.882230     214.530504     116.834482       0.000000
    116.447980     220.811109     116.267907       0.000000
     92.984536     221.900975     112.927588       0.000000
     89.483797     251.222860     115.072554       0.000000
    117.222959     255.356519     111.099213       0.000000
    126.315130     257.486627     113.555466       0.000000
    109.651651     273.861006     114.085818       0.000000
    122.293088     293.111264     117.524366       0.000000
    114.715762     297.822459     119.330361       0.000000
    109.168975     306.997227     121.935616       0.000000
    106.182794     316.106690     123.045604       0.000000
    105.890075     335.902922     123.998836       0.000000
    121.155176     336.350000     123.429197       0.000000
    113.980483     330.001090     122.845927       0.000000
    107.169761     350.998169     126.988588       0.000000
     98.915393     359.045403     129.303670       0.000000
    109.314270     362.520794     129.163979       0.000000
    106.301313     372.954530     129.271549       0.000000
    111.620549     390.035497     124.586591       0.000000
    106.577074     399.380307     123.915168       0.000000
    104.151019     416.481020     122.547842       0.000000
    109.286608     408.367626     121.241663       0.000000
    122.835045     431.248943     118.374059       0.000000
    112.668163     432.278888     120.166388       0.000000
     99.021803     443.392164     126.317755       0.000000
    112.466246     460.761433     122.347054       0.000000
    130.078525     480.141699     122.459628       0.000000
    103.494176     470.774205     125.231882       0.000000
    111.468072     481.260012     124.000589       0.000000
    110.000000     500.000000     124.215336       0.000000
    120.000000      10.000000     124.893730       0.000000
    122.638360      20.873487     124.736665       0.000000
    134.005971      28.494928     127.630687       0.000000
    112.932479      36.509688     127.157741       0.000000
    127.339008      48.839707     128.058154       0.000000
    136.931063      59.129959     129.675153       0.000000
    132.246619      67.576117     130.129092       0.000000
    122.552022      71.560586     132.111777       0.000000
    114.962107      88.213139     129.315371       0.000000
    115.653229     103.282428     128.736191       0.000000
    107.216940     118.493703     126.040949       0.000000
    123.902499     126.515215     128.446032       0.000000
    138.503090     121.160805     130.047477       0.000000
     99.455063     151.127129     121.936065       0.000000
    114.404079     155.821734     125.647011       0.000000
    140.551137     156.374339     132.673205       0.000000
    114.388954     178.276760     124.031379       0.000000
    111.110282     167.498580     124.448449       0.000000
    136.826433     205.699141     127.243553       0.000000
    117.819479     207.967502     120.314096       0.000000
    124.411994     214.345569     120.813584       0.000000
    124.664391     224.639824     115.950582       0.000000
    128.397444     233.163614     114.239386       0.000000
     99.682301     243.446273     110.846128       0.000000
    107.383060     248.045790     109.706075       0.000000
    109.926093     262.747783     111.417379       0.000000
    124.055083     247.836458     111.970367       0.000000
    118.008195     268.180989     112.161025       0.000000
    129.681238     288.252167     115.525991       0.000000
    128.245448     301.178173     118.989474       0.000000
    116.148483     320.287753     121.635636       0.000000
     95.419998     320.221037     124.742137       0.000000
    123.891373     326.635261     121.973779       0.000000
    128.540662     353.089518     127.262218       0.000000
    126.033090     344.439779     123.612494       0.000000
    116.965081     355.379936     126.845212       0.000000
    131.326392     384.614586     125.649120       0.000000
    122.612282     363.088553     127.927917       0.000000
    115.215434     370.151811     127.778186       0.000000
    116.020769     400.968186     120.878394       0.000000
    120.471293     411.845203     119.057756       0.000000
    121.120321     421.090050     118.187906       0.000000
    130.013132     437.187902     117.042664       0.000000
     94.947863     434.521410     126.957711       0.000000
    112.574162     447.313275     121.441226       0.000000
    112.652385     472.067238     124.333163       0.000000
    127.335473     471.594976     120.732215       0.000000
    138.895653     482.748046     122.349603       0.000000
    114.904061     489.906718     124.604417       0.000000
    120.000000     500.000000     124.260544       0.000000
    130.000000      10.000000     124.648261       0.000000
    137.387863      18.889481     124.713378       0.000000
    126.612123      34.992304     128.584376       0.000000
    146.391522      56.638345     128.833634       0.000000
    120.389488      42.064764     127.537744       0.000000
    130.925565      78.790190     132.288312       0.000000
    125.655052      60.773278     131.423686       0.000000
    124.262436      86.108146     131.340054       0.000000
    125.709161      96.693268     130.518494       0.000000
    116.442939     116.985791     128.548817       0.000000
    129.322233     118.418932     129.549977       0.000000
    142.168207     130.700698     130.955253       0.000000
    132.814980     128.717472     129.158550       0.000000
    119.471236     144.571126     126.520379       0.000000
    123.398900     159.586419     127.552219       0.000000
    133.504070     163.194821     131.631767       0.000000
    123.622476     180.200537     128.292225       0.000000
    112.113536     187.423127     122.825287       0.000000
    137.108371     196.607952     130.381694       0.000000
    146.122486     205.049280     128.330626       0.000000
    128.326501     206.394795     123.655759       0.000000
    133.493856     213.915696     124.072520       0.000000
    137.736563     230.590772     117.242672       0.000000
    131.340282     242.381445     114.061276       0.000000
    113.712668     231.599834     112.443774       0.000000
    117.656930     240.727475     111.480997       0.000000
    132.679251     264.122878     115.360198       0.000000
    134.104300     278.357620     116.421718       0.000000
    138.618807     292.004108     117.810354       0.000000
    133.509764     323.371028     121.144887       0.000000
    143.440528     302.973957     120.078641       0.000000
    105.258961     325.616045     124.084582       0.000000
    119.169078     307.612797     121.778727       0.000000
    133.906800     364.635445     128.773601       0.000000
    128.967233     374.873920     127.620696       0.000000
    137.793802     378.367895     129.279024       0.000000
    145.800407     382.168595     132.534156       0.000000
    121.692847     383.538861     123.656489       0.000000
    120.495719     393.111912     121.371270       0.000000
    126.804616     400.875543     120.837351       0.000000
    136.429530     405.526189     123.313032       0.000000
    129.099847     415.316697     120.756733       0.000000
    118.361754     439.481887     119.303145       0.000000
    104.766830     436.232631     123.136547       0.000000
    120.596397     477.968086     123.445568       0.000000
    129.017816     460.479882     118.290504       0.000000
    120.753270     465.210131     120.635813       0.000000
    135.792439     468.665752     118.558184       0.000000
    123.881319     490.782156     124.381547       0.000000
    130.000000     500.000000     124.220897       0.000000
    140.000000      10.000000     124.382322       0.000000
    144.913551      27.663378     126.516016       0.000000
    139.275831      50.431000     127.747437       0.000000
    133.771168      40.857373     128.407881       0.000000
    145.827980      65.674948     129.071174       0.000000
    159.556138      64.077113     127.896431       0.000000
    140.084165      75.720191     131.006759       0.000000
    135.384414      91.966514     132.254226       0.000000
    146.671453      98.985615     130.966453       0.000000
    126.349420     106.523511     131.590596       0.000000
    136.825583     101.749634     131.487514       0.000000
    148.156229     119.127792     130.484900       0.000000
    150.918812     133.370504     132.269061       0.000000
    130.272964     140.291733     128.525940       0.000000
    129.254841     151.329538     129.440296       0.000000
    138.250541     144.780683     130.859090       0.000000
    120.587801     190.888235     125.834269       0.000000
    148.320211     183.195255     134.044008       0.000000
    130.841113     189.388538     130.661969       0.000000
    144.444814     191.733450     132.888992       0.000000
    154.987094     200.913573     130.104564       0.000000
    132.553203     222.370240     120.806030       0.000000
    144.172656     224.291867     119.831222       0.000000
    137.787869     251.582713     116.642826       0.000000
    141.674000     260.085169     115.941767       0.000000
    125.719460     272.655062     114.477671       0.000000
    143.742664     278.802201     119.234545       0.000000
    146.922623     292.021613     122.292072       0.000000
    141.449882     313.918143     120.642517       0.000000
    163.126772     301.132801     124.920261       0.000000
    133.546366     308.887718     118.799227       0.000000
    125.949765     314.779476     120.393560       0.000000
    140.079685     331.814005     122.764792       0.000000
    134.476024     341.243612     123.888354       0.000000
    142.009606     348.449914     128.405870       0.000000
    143.666981     339.892399     125.480031       0.000000
    141.278552     370.028398     131.379507       0.000000
    141.874395     390.273338     128.956763       0.000000
    132.748507     394.201290     123.970031       0.000000
    144.395953     411.368271     124.201811       0.000000
    151.764272     427.439876     118.665115       0.000000
    147.978277     440.133875     114.561457       0.000000
    129.955058     424.092644     118.163824       0.000000
    132.248974     451.756163     116.914519       0.000000
    120.273689     453.228907     119.880802       0.000000
    125.272130     445.355730     118.371504       0.000000
    147.574082     477.588152     118.362914       0.000000
    156.178905     479.657925     120.647516       0.000000
    135.446965     491.024813     123.436787       0.000000
    140.000000     500.000000     124.762985       0.000000
    150.000000      10.000000     126.545947       0.000000
    150.339233      19.412102     127.026490       0.000000
    142.100994      36.411438     128.190259       0.000000
    155.101554      36.964187     129.594884       0.000000
    159.657507      46.079257     127.881381       0.000000
    148.590476      46.105443     128.425999       0.000000
    141.882034      84.950643     131.218973       0.000000
    151.408781      73.275052     128.936233       0.000000
    150.643070      86.868353     129.826291       0.000000
    158.819851      94.092422     129.386405       0.000000
    154.195346     110.070479     131.394545       0.000000
    135.419604     110.773408     130.859053       0.000000
    165.205379     126.591257     132.455951       0.000000
    148.587320     142.834188     132.415255       0.000000
    159.011663     143.636951     133.666325       0.000000
    144.534790     164.678761     133.930910       0.000000
    143.860902     175.022557     135.283911       0.000000
    133.171221     172.716155     132.774552       0.000000
    155.897968     191.747220     132.444904       0.000000
    163.142499     196.632761     130.106358       0.000000
    143.657420     214.754112     123.711407       0.000000
    154.767552     210.987806     125.298460       0.000000
    157.683356     226.948832     120.141645       0.000000
    163.856725     233.798268     117.839904       0.000000
    140.075600     240.816701     115.777673       0.000000
    148.817292     251.805690     116.997175       0.000000
    149.156686     268.391340     119.014184       0.000000
    160.473398     278.191466     125.176719       0.000000
    140.336755     269.507662     116.403345       0.000000
    152.175587     311.289063     121.751400       0.000000
    161.800297     310.927950     123.671759       0.000000
    130.303964     333.204353     121.962798       0.000000
    156.225782     320.921723     122.649604       0.000000
    159.588088     341.846198     127.536740       0.000000
    153.025076     333.078113     122.892328       0.000000
    150.710118     345.398299     128.354083       0.000000
    138.266569     356.711771     129.069689       0.000000
    145.836004     401.106123     127.115939       0.000000
    152.379505     388.590066     134.255868       0.000000
    139.299986     420.383256     120.108247       0.000000
    164.442410     431.461894     118.930193       0.000000
    157.848774     449.747460     115.686431       0.000000
    141.418825     430.247864     116.855912       0.000000
    139.540095     444.771069     114.017857       0.000000
    147.296436     454.374687     115.694803       0.000000
    138.704423     458.943134     115.943262       0.000000
    157.172246     470.270345     118.844298       0.000000
    165.537526     481.058158     122.600686       0.000000
    149.202280     490.693444     123.656509       0.000000
    150.000000     500.000000     125.362384       0.000000
    160.000000      10.000000     126.362976       0.000000
    159.981193      19.432913     126.656397       0.000000
    154.785279      27.950011     128.762263       0.000000
    165.544482      37.972149     129.453496       0.000000
    176.149009      52.569421     126.272336       0.000000
    156.735358      55.204979     128.477538       0.000000
    170.906878      66.896188     125.621386       0.000000
    162.919058      73.589096     127.777127       0.000000
    158.213280      81.822985     127.603380       0.000000
    160.349955     103.148052     130.719605       0.000000
    161.812303     115.491683     132.951243       0.000000
    156.312470     124.573683     131.476896       0.000000
    173.368551     136.537166     135.067808       0.000000
    163.376222     135.608612     133.677968       0.000000
    163.388442     151.906884     134.055493       0.000000
    153.213006     173.630212     134.571477       0.000000
    137.277218     181.646533     133.361466       0.000000
    162.662622     171.418393     133.826358       0.000000
    162.049753     183.465665     132.643366       0.000000
    162.746244     214.718196     121.941592       0.000000
    163.408890     205.662831     125.657744       0.000000
    190.613424     220.108470     117.070339       0.000000
    166.528677     223.540522     120.173284       0.000000
    168.001494     242.225995     118.663372       0.000000
    150.332860     232.322414     118.883701       0.000000
    162.557078     249.930540     119.317669       0.000000
    169.595787     276.459465     126.778940       0.000000
    154.132793     286.428873     125.061076       0.000000
    154.554064     297.585877     124.781825       0.000000
    170.827576     295.259965     128.212576       0.000000
    171.330022     308.220722     125.075580       0.000000
    144.066221     322.764678     121.312864       0.000000
    162.401567     331.907665     124.120539       0.000000
    161.637259     351.189620     132.757077       0.000000
    152.812457     354.806298     131.735774       0.000000
    154.613654     366.122037     134.904744       0.000000
    146.698243     361.764692     132.088590       0.000000
    154.148845     377.170747     136.487656       0.000000
    153.073319     397.236542     131.564405       0.000000
    152.439909     407.305539     127.030439       0.000000
    169.781874     414.521019     127.220615       0.000000
    152.363024     417.535644     121.454188       0.000000
    166.548792     440.507657     117.540267       0.000000
    180.575482     440.314163     118.055656       0.000000
    168.097585     453.088701     117.170386       0.000000
    173.573327     460.880896     118.510810       0.000000
    154.395050     461.194820     116.173157       0.000000
    170.725477     471.382085     120.243473       0.000000
    161.677109     490.798427     123.486920       0.000000
    160.000000     500.000000     125.650564       0.000000
    170.000000      10.000000     126.178879       0.000000
    164.621200      28.908462     128.474530       0.000000
    175.098231      27.734070     128.539258       0.000000
    186.061589      36.178164     126.358614       0.000000
    175.714990      36.809535     128.859973       0.000000
    169.624256      46.070287     127.882659       0.000000
    167.939210      58.463885     127.437963       0.000000
    170.371873      79.091955     126.712871       0.000000
    167.023438      88.170050     128.077610       0.000000
    168.683815      97.806331     129.023403       0.000000
    184.512632     123.361076     135.607242       0.000000
    144.302033     108.502381     130.589678       0.000000
    171.050549     118.641169     132.653269       0.000000
    168.840766     144.408343     135.292131       0.000000
    154.286061     163.859406     134.522667       0.000000
    150.915670     153.218413     132.990076       0.000000
    184.354530     175.557535     132.674166       0.000000
    172.193741     173.986144     133.817823       0.000000
    168.736474     189.279666     130.751894       0.000000
    172.135158     198.736876     126.155336       0.000000
    152.032426     219.710460     121.436158       0.000000
    180.330913     221.228567     116.620165       0.000000
    172.708535     230.272176     118.154318       0.000000
    166.742044     257.912270     122.146820       0.000000
    154.796655     240.387111     117.390618       0.000000
    152.210692     276.430708     122.013426       0.000000
    158.971607     269.504088     121.922349       0.000000
    176.285955     282.476081     129.365936       0.000000
    163.084309     287.436417     127.190888       0.000000
    179.274410     292.329429     129.871021       0.000000
    177.892177     302.373632     127.576942       0.000000
    166.003501     321.494306     123.513636       0.000000
    169.308455     341.044018     127.956202       0.000000
    170.895696     351.430174     132.034412       0.000000
    164.785580     360.914372     136.031345       0.000000
    172.140057     368.460252     135.824877       0.000000
    163.575119     373.686303     137.370151       0.000000
    162.083859     384.293829     137.319421       0.000000
    161.730539     396.465474     134.711042       0.000000
    164.579382     407.601766     130.109717       0.000000
    161.199149     414.880718     124.503410       0.000000
    179.187654     406.563757     129.939217       0.000000
    160.340700     423.190151     120.957536       0.000000
    157.468592     438.607032     115.400838       0.000000
    184.027159     460.069942     117.640069       0.000000
    145.601296     468.324962     116.862392       0.000000
    194.384708     456.782392     118.418096       0.000000
    176.133208     480.179918     122.758312       0.000000
    170.943076     488.326911     123.710792       0.000000
    170.000000     500.000000     125.200067       0.000000
    180.000000      10.000000     125.691626       0.000000
    169.539579      19.827851     126.115572       0.000000
    179.007848      19.148352     127.052442       0.000000
    185.187235      27.180519     127.582477       0.000000
    183.401966      46.478655     126.132156       0.000000
    179.815453      61.040312     124.926104       0.000000
    177.445979      91.465309     129.632324       0.000000
    186.925994      97.138472     129.208276       0.000000
    168.781811     108.123438     130.676607       0.000000
    180.172029     115.089438     133.090253       0.000000
    193.468414     114.866666     134.862350       0.000000
    192.984702     136.369009     135.208988       0.000000
    176.454460     127.914964     135.840166       0.000000
    178.207127     144.679337     135.176268       0.000000
    173.808071     152.993130     134.301519       0.000000
    163.131277     161.803560     134.390449       0.000000
    176.636110     182.016267     132.316600       0.000000
    179.302902     192.627316     128.343247       0.000000
    174.944642     206.495040     121.904455       0.000000
    172.024335     216.062584     119.657797       0.000000
    183.634323     210.673363     120.282802       0.000000
    193.093493     210.248466     117.307591       0.000000
    198.750342     226.671074     117.995099       0.000000
    177.663750     239.371773     119.764290       0.000000
    171.609488     265.824993     124.994616       0.000000
    155.088429     258.936390     119.126523       0.000000
    180.196324     272.811112     127.707159       0.000000
    187.801642     286.623314     131.006640       0.000000
    186.773775     297.645775     128.719740       0.000000
    187.314800     306.572316     126.304855       0.000000
    190.681786     315.031360     125.825686       0.000000
    178.134082     316.461608     124.786440       0.000000
    172.458684     328.820095     124.666165       0.000000
    178.896192     341.389455     127.147862       0.000000
    180.557150     350.018578     131.075789       0.000000
    189.347641     369.979361     132.889462       0.000000
    181.332425     375.632558     136.065231       0.000000
    172.705900     378.474861     138.323063       0.000000
    171.922270     401.123018     133.645388       0.000000
    169.523596     392.042421     136.334338       0.000000
    193.227858     389.315065     129.102750       0.000000
    188.725099     400.900008     128.010534       0.000000
    170.530919     424.398288     121.688214       0.000000
    175.129804     432.110037     119.769798       0.000000
    163.617140     460.886962     118.257962       0.000000
    188.654223     446.871409     117.016437       0.000000
    194.980879     468.041956     120.518600       0.000000
    181.589929     469.610179     120.355935       0.000000
    180.568099     490.066617     124.149428       0.000000
    180.000000     500.000000     124.926248       0.000000
    190.000000      10.000000     125.355084       0.000000
    191.158588      20.239343     126.407411       0.000000
    204.498397      36.415193     124.009563       0.000000
    200.416395      52.425838     121.781208       0.000000
    187.363033      67.336517     123.637136       0.000000
    188.895315      55.734460     124.333934       0.000000
    179.280110      82.517891     126.747326       0.000000
    188.476391      85.638033     125.165853       0.000000
    196.635305      94.284051     128.186442       0.000000
    177.747339     102.213400     129.173361       0.000000
    186.746679     108.979090     131.359643       0.000000
    200.974935     132.327554     134.226653       0.000000
    183.423783     133.671054     136.114526       0.000000
    196.766851     157.216120     130.039843       0.000000
    195.539517     176.139950     127.683419       0.000000
    204.306384     177.053897     125.480738       0.000000
    205.085718     188.806221     120.275521       0.000000
    188.699822     184.696528     128.452363       0.000000
    197.574451     184.396053     124.695939       0.000000
    192.834273     192.054424     121.811187       0.000000
    182.809203     200.691422     123.171170       0.000000
    200.549729     197.021089     116.706035       0.000000
    200.401003     218.157620     115.370316       0.000000
    186.879220     241.011077     122.082307       0.000000
    196.531624     248.281628     122.837175       0.000000
    178.525360     258.485578     124.172542       0.000000
    205.255758     266.239736     129.829438       0.000000
    199.744169     277.088966     129.067935       0.000000
    206.971485     292.777737     126.648752       0.000000
    200.720755     286.691935     128.919601       0.000000
    185.493149     323.485310     124.847498       0.000000
    190.222719     331.417915     124.761367       0.000000
    181.196773     332.190866     125.102285       0.000000
    188.101650     341.655743     127.279097       0.000000
    196.248572     350.242034     127.919009       0.000000
    179.946676     361.990054     132.729472       0.000000
    196.133802     363.811268     129.941462       0.000000
    189.204255     380.284573     133.406771       0.000000
    180.156861     387.177360     137.213901       0.000000
    180.927451     396.428862     133.018357       0.000000
    197.708193     409.816885     123.265741       0.000000
    181.468305     415.394338     127.670070       0.000000
    188.912371     410.222050     126.942042       0.000000
    182.193304     426.366274     122.446328       0.000000
    178.683590     449.637418     117.321243       0.000000
    198.092191     447.734931     117.897027       0.000000
    194.674525     477.256143     122.340717       0.000000
    185.110102     478.835747     122.795976       0.000000
    191.469521     489.829458     124.723662       0.000000
    190.000000     500.000000     124.518757       0.000000
    200.000000      10.000000     124.645273       0.000000
    204.232291      18.757011     125.029708       0.000000
    196.754617      42.421463     123.587490       0.000000
    196.704191      30.287365     126.603609       0.000000
    197.957761      61.341472     121.928634       0.000000
    177.466192      73.695184     125.313198       0.000000
    187.458007      76.588954     123.753220       0.000000
    208.569550      89.213736     123.434105       0.000000
    199.538616      83.901832     124.552043       0.000000
    206.646815      97.639277     126.049152       0.000000
    193.931002     103.525028     131.206938       0.000000
    205.835652     118.252552     134.916745       0.000000
    187.507024     146.955281     133.737140       0.000000
    186.798498     156.672244     132.839660       0.000000
    196.494367     145.490303     132.673778       0.000000
    210.171334     162.242025     125.283210       0.000000
    176.940631     166.233335     134.328984       0.000000
    220.617907     177.313908     120.031448       0.000000
    219.152957     192.740599     115.584851       0.000000
    214.625523     184.792693     119.020470       0.000000
    212.096157     204.808576     112.189202       0.000000
    191.829002     201.372302     119.696668       0.000000
    203.704423     208.567941     113.756181       0.000000
    185.929943     227.935311     119.117425       0.000000
    201.333967     239.012776     121.669228       0.000000
    192.984787     233.450687     120.113435       0.000000
    176.423471     249.839756     122.644381       0.000000
    189.267243     276.355892     130.237263       0.000000
    190.847127     267.374070     127.547573       0.000000
    196.824340     295.138535     128.204284       0.000000
    194.577871     323.407352     123.612738       0.000000
    203.130368     327.727849     121.653184       0.000000
    214.179082     326.892949     120.266371       0.000000
    198.767231     337.944838     123.947455       0.000000
    204.689268     345.388040     123.619118       0.000000
    188.793691     354.535304     131.049299       0.000000
    207.842265     379.023842     126.230402       0.000000
