    346.301947     274.106223     125.530737       0.000000
    344.453240     294.899152     120.353182       0.000000
    330.955525     312.421078     119.593500       0.000000
    336.482238     321.139436     118.860824       0.000000
    349.720996     324.961931     115.431136       0.000000
    345.135914     339.940592     114.837488       0.000000
    353.432202     343.681740     114.198550       0.000000
    346.539189     362.491120     113.725562       0.000000
    336.560870     361.332562     115.956512       0.000000
    338.431927     370.393946     115.600800       0.000000
    345.390803     387.980988     116.983885       0.000000
    331.907732     382.344877     117.926957       0.000000
    338.184094     405.943688     115.259864       0.000000
    312.269967     410.844823     124.946151       0.000000
    333.340303     418.985865     118.369005       0.000000
    342.228521     418.947469     115.469381       0.000000
    330.327298     436.334720     122.552464       0.000000
    359.098050     433.547327     118.374680       0.000000
    341.195188     437.384764     119.818788       0.000000
    333.940771     456.085034     121.987740       0.000000
    340.548814     471.134155     125.539667       0.000000
    351.646024     490.034327     129.835142       0.000000
    340.000000     500.000000     131.655012       0.000000
    350.000000      10.000000     130.172871       0.000000
    355.854133      18.945544     128.065837       0.000000
    348.800354      27.195753     127.271603       0.000000
    357.329640      38.853179     124.491332       0.000000
    349.673724      45.595181     123.657339       0.000000
    354.209721      60.680298     123.399585       0.000000
    353.406952      72.347568     122.809341       0.000000
    350.828136      82.514677     123.267447       0.000000
    361.645883     103.308015     120.536710       0.000000
    356.867478     111.696100     122.092301       0.000000
    345.959140     118.567157     126.366230       0.000000
    355.729397     120.425542     124.208600       0.000000
    341.562162     135.901722     132.212885       0.000000
    340.417199     148.108735     131.141989       0.000000
    338.978102     165.462240     125.378091       0.000000
    349.230955     149.198585     128.445039       0.000000
    345.698392     157.288396     126.511945       0.000000
    350.633734     168.650932     122.415355       0.000000
    352.134441     199.311143     119.511505       0.000000
    343.492224     193.853896     117.271693       0.000000
    339.567914     212.999730     119.724129       0.000000
    358.608249     205.179284     122.749658       0.000000
    343.645955     221.136385     123.432984       0.000000
    353.257176     241.642280     127.148869       0.000000
    365.681354     241.592472     128.023387       0.000000
    359.879513     249.306919     127.376696       0.000000
    354.325341     268.905808     125.053190       0.000000
    366.862646     267.586658     122.455517       0.000000
    353.034425     284.283904     120.564159       0.000000
    328.357570     303.039637     120.510647       0.000000
    343.131643     314.320436     118.219538       0.000000
    364.614176     313.578097     115.489226       0.000000
    352.067012     316.083630     116.043076       0.000000
    351.577721     353.032055     113.469943       0.000000
    359.210228     362.520079     114.613243       0.000000
    347.976462     372.817472     115.161911       0.000000
    341.282128     379.418901     116.316834       0.000000
    352.753910     382.616571     116.806018       0.000000
    338.473830     395.682859     118.131157       0.000000
    359.425482     402.618923     115.385246       0.000000
    350.018092     395.985939     115.254715       0.000000
    352.189055     408.448454     114.340362       0.000000
    347.185042     428.938710     115.677720       0.000000
    350.604933     439.605247     120.184909       0.000000
    352.440183     456.587597     122.730478       0.000000
    344.740420     463.070696     122.973362       0.000000
    350.233537     471.711831     124.571135       0.000000
    334.702229     482.108848     127.183265       0.000000
    363.762136     491.461814     128.269196       0.000000
    350.000000     500.000000     130.925215       0.000000
    360.000000      10.000000     127.932452       0.000000
    365.424363      20.097244     127.029824       0.000000
    366.537933      36.184179     125.423289       0.000000
    357.523436      51.432154     122.886530       0.000000
    375.115457      52.150639     123.561599       0.000000
    364.833942      59.121519     122.827376       0.000000
    361.952121      68.363420     122.733623       0.000000
    370.699656      81.853924     119.767699       0.000000
    363.799704      89.085606     121.042051       0.000000
    370.762388     106.947517     118.834179       0.000000
    375.558637     115.194161     119.742695       0.000000
    357.555364     135.094206     126.702893       0.000000
    336.981747     156.875991     129.327654       0.000000
    331.827140     150.345541     133.639268       0.000000
    360.162958     145.407915     125.827674       0.000000
    363.232299     156.412782     123.073353       0.000000
    354.489450     158.047714     124.671398       0.000000
    356.048024     177.189130     121.295631       0.000000
    361.015365     195.776050     122.054998       0.000000
    369.559214     195.232592     125.475683       0.000000
    366.788632     208.495095     125.621052       0.000000
    348.905741     213.751472     122.149963       0.000000
    351.907914     224.624388     125.017302       0.000000
    374.899449     241.202498     128.158243       0.000000
    370.009055     253.448254     126.247502       0.000000
    362.408522     258.901239     126.138728       0.000000
    375.864527     273.341498     118.850411       0.000000
    362.124645     287.483587     118.065063       0.000000
    348.203432     305.851970     117.972580       0.000000
    338.251328     306.137047     120.540406       0.000000
    358.366172     305.938350     116.332889       0.000000
    364.253544     332.030986     115.873872       0.000000
    352.556182     334.021692     114.823603       0.000000
    372.961665     341.167617     115.272859       0.000000
    364.265703     344.260329     114.497575       0.000000
    361.734189     352.969967     114.309309       0.000000
    357.032946     371.224849     116.029228       0.000000
    361.897849     381.677977     117.013689       0.000000
    366.941457     396.702321     115.754473       0.000000
    358.850224     415.654018     113.636996       0.000000
    369.600950     407.379118     114.881672       0.000000
    351.485224     421.195579     113.785650       0.000000
    367.991678     435.879046     120.201374       0.000000
    360.065786     441.962280     121.477126       0.000000
    359.342888     450.907733     123.990418       0.000000
    358.792476     474.708392     124.742758       0.000000
    357.730946     483.369935     127.574779       0.000000
    347.812607     481.800279     127.902196       0.000000
    372.520130     486.432983     125.948446       0.000000
    360.000000     500.000000     128.941703       0.000000
    370.000000      10.000000     127.048454       0.000000
    376.532405      18.946323     125.670781       0.000000
    358.509493      29.231905     127.069217       0.000000
    365.743958      45.150444     124.227220       0.000000
    374.533486      62.678294     120.548490       0.000000
    361.754916      78.895131     123.065572       0.000000
    379.476403      74.612344     119.227949       0.000000
    396.241687      87.166821     117.379251       0.000000
    369.022750      96.655011     118.822659       0.000000
    349.113799     106.629801     124.281325       0.000000
    378.098901     124.138516     119.606057       0.000000
    367.044307     119.101574     120.668026       0.000000
    367.297859     128.317136     122.957870       0.000000
    386.901228     130.978566     120.746089       0.000000
    349.630632     139.043064     128.560317       0.000000
    367.453229     139.133920     123.437250       0.000000
    370.950975     149.815312     122.301529       0.000000
    365.068926     176.103563     121.141003       0.000000
    365.909144     185.304559     123.476790       0.000000
    375.018386     213.272937     129.095983       0.000000
    358.436180     215.504464     124.700973       0.000000
    365.471600     223.827148     127.160049       0.000000
    359.622961     233.532518     127.512249       0.000000
    369.591734     232.987605     127.565192       0.000000
    380.796732     250.661809     124.286539       0.000000
    376.591728     259.707811     122.879973       0.000000
    385.304528     258.073088     121.080674       0.000000
    358.453428     277.226780     122.248153       0.000000
    366.623363     295.197321     115.939130       0.000000
    353.353270     298.283172     118.715005       0.000000
    371.752978     303.714576     113.412443       0.000000
    389.271883     319.068525     115.761027       0.000000
    360.107314     322.156353     115.283672       0.000000
    383.880438     328.363986     116.173818       0.000000
    374.431469     329.952964     116.221498       0.000000
    372.868684     352.056863     115.613912       0.000000
    369.261541     363.464678     115.429982       0.000000
    368.121548     372.783018     118.546644       0.000000
    358.691112     392.294947     115.921511       0.000000
    380.386807     403.197936     118.940144       0.000000
    382.060733     423.516472     120.369348       0.000000
    371.469487     425.336650     116.615928       0.000000
    360.219962     424.672159     114.598872       0.000000
    371.301685     444.786507     122.324947       0.000000
    379.965034     451.586476     123.822023       0.000000
    357.899923     463.934036     123.403864       0.000000
    368.697692     455.278060     124.070130       0.000000
    367.918172     478.580961     125.150928       0.000000
    380.539639     490.491735     125.094442       0.000000
    370.000000     500.000000     127.086143       0.000000
    380.000000      10.000000     125.016226       0.000000
    385.598547      19.126873     123.815322       0.000000
    373.043263      29.524475     125.629105       0.000000
    383.380351      45.742606     122.865984       0.000000
    395.156786      37.669477     121.440597       0.000000
    383.806903      55.876149     122.221695       0.000000
    369.994751      72.350724     120.687404       0.000000
    383.994012      66.185047     120.411124       0.000000
    378.934609      97.968170     118.793597       0.000000
    382.147040     108.949620     118.861028       0.000000
    396.011390     112.072447     119.057170       0.000000
    388.429361     117.986726     119.349625       0.000000
    380.098246     143.013361     122.807520       0.000000
    378.285550     134.099370     121.964223       0.000000
    372.003707     160.327329     122.855711       0.000000
    393.042435     151.521471     123.845556       0.000000
    364.223640     166.452126     121.107789       0.000000
    373.056496     169.884571     122.164650       0.000000
    377.440301     189.941150     124.729592       0.000000
    384.818762     209.582841     129.544687       0.000000
    383.111841     218.581161     130.057621       0.000000
    395.968836     225.244043     125.603368       0.000000
    375.045308     222.912530     128.450204       0.000000
    387.938136     229.993685     127.651455       0.000000
    378.540925     231.741173     127.237392       0.000000
    383.981423     266.720196     118.469112       0.000000
    380.085166     280.999815     115.382538       0.000000
    367.204543     278.710469     120.250027       0.000000
    373.469223     288.268051     115.366786       0.000000
    380.236717     293.756510     113.054212       0.000000
    371.854800     320.974965     115.823218       0.000000
    393.089125     307.849199     114.385635       0.000000
    382.427962     338.493437     115.036376       0.000000
    382.529535     349.098322     115.070942       0.000000
    389.178953     354.713003     119.004003       0.000000
    380.002143     357.862784     117.160948       0.000000
    376.801213     369.609100     118.819682       0.000000
    394.661467     379.271778     127.500864       0.000000
    380.408209     378.974126     121.446221       0.000000
    370.342313     384.795050     117.833298       0.000000
    368.390271     416.539896     115.268932       0.000000
    387.266931     432.312025     123.293090       0.000000
    382.930998     440.200282     123.091794       0.000000
    376.937602     431.587167     120.565277       0.000000
    389.886992     446.806194     123.675611       0.000000
    377.396871     462.108689     123.701859       0.000000
    366.567082     467.502806     124.185266       0.000000
    380.648058     481.462772     123.925509       0.000000
    389.139736     474.350610     124.833239       0.000000
    380.000000     500.000000     125.329127       0.000000
    390.000000      10.000000     124.172387       0.000000
    394.528891      17.857342     122.586164       0.000000
    374.374696      40.988878     123.627419       0.000000
    384.072929      36.695586     122.073300       0.000000
    400.991159      44.642719     122.779831       0.000000
    392.008480      49.035898     121.949604       0.000000
    389.472074      73.433596     119.731547       0.000000
    399.245304      75.001543     120.370661       0.000000
    385.983653      81.778980     118.480499       0.000000
    377.547560      88.766517     118.148059       0.000000
    390.187703     104.144603     118.491785       0.000000
    408.810140     112.232309     120.469103       0.000000
    397.932576     132.280321     122.769301       0.000000
    389.087525     141.282386     122.892309       0.000000
    380.609195     157.473970     123.535940       0.000000
    393.944634     161.000628     123.813818       0.000000
    385.949531     166.847915     123.789465       0.000000
    385.373531     178.273219     124.400500       0.000000
    378.736651     202.859775     127.587026       0.000000
    384.464959     195.862127     125.669815       0.000000
    393.344486     203.515494     129.213611       0.000000
    393.093396     214.140860     128.572384       0.000000
    407.259128     225.630925     123.637733       0.000000
    405.486968     235.794273     122.716184       0.000000
    394.748002     237.251080     125.264780       0.000000
    385.761215     238.817018     126.212781       0.000000
    394.090548     255.829406     120.959800       0.000000
    388.190499     289.398019     112.180792       0.000000
    392.872364     297.426165     112.731295       0.000000
    379.626003     315.226398     114.538837       0.000000
    382.328971     306.395184     114.071087       0.000000
    402.065174     305.749683     115.112194       0.000000
    393.446085     333.079847     115.089818       0.000000
    391.329651     341.830227     116.748502       0.000000
    396.790604     348.257053     120.525049       0.000000
    388.231767     364.245549     121.180756       0.000000
    389.123045     372.737218     124.699803       0.000000
    400.630907     388.774969     127.273069       0.000000
    390.537368     387.828107     124.583437       0.000000
    380.057920     390.487346     119.809220       0.000000
    387.078191     396.971441     121.009687       0.000000
    378.911631     413.424729     118.252515       0.000000
    419.899455     417.446490     128.845499       0.000000
    395.725838     435.001134     125.685893       0.000000
    388.020574     456.644855     123.958063       0.000000
    386.413327     465.644336     123.525379       0.000000
    378.471684     471.804891     123.938699       0.000000
    395.253488     482.475339     125.997343       0.000000
    390.324271     490.221030     125.924725       0.000000
    390.000000     500.000000     124.368986       0.000000
    400.000000      10.000000     123.050863       0.000000
    406.464051      19.836256     123.336418       0.000000
    381.974002      27.912784     122.513178       0.000000
    393.065004      27.253191     121.571388       0.000000
    410.793156      47.026176     123.202106       0.000000
    401.548223      55.354058     122.134960       0.000000
    393.575445      63.297863     120.960574       0.000000
    405.328619      85.989553     117.170725       0.000000
    401.604455     104.359135     119.378957       0.000000
    388.007497      91.537935     118.342590       0.000000
    395.772400      96.602847     118.560665       0.000000
    398.077101     121.432624     120.816375       0.000000
    399.760018     142.058164     124.549131       0.000000
    413.823721     142.875311     125.757150       0.000000
    406.478321     135.845931     123.343687       0.000000
    410.198346     151.319053     127.251435       0.000000
    393.047527     173.138274     126.130808       0.000000
    396.556521     182.051760     128.179679       0.000000
    375.755298     179.744015     123.214692       0.000000
    389.161664     186.463313     125.273322       0.000000
    395.881178     194.991927     127.095129       0.000000
    401.962893     207.127149     127.024576       0.000000
    418.741959     233.353830     124.981220       0.000000
    416.213813     224.518435     124.969396       0.000000
    399.406107     248.341062     121.020428       0.000000
    390.841842     246.791974     124.010644       0.000000
    403.529245     255.878391     118.068878       0.000000
    390.267635     277.704520     115.456720       0.000000
    397.130318     285.407542     112.771556       0.000000
    402.710981     294.793762     113.020109       0.000000
    411.459876     308.910947     116.555237       0.000000
    401.975378     314.832832     115.576193       0.000000
    399.300187     323.622452     115.966903       0.000000
    408.981250     341.671006     123.023777       0.000000
    401.008019     339.226046     119.178876       0.000000
    398.714653     357.320821     123.946160       0.000000
    405.569936     372.286173     128.123139       0.000000
    398.261888     367.514265     125.664704       0.000000
    418.424713     396.883437     130.912007       0.000000
    408.703556     395.381028     128.405710       0.000000
    396.167658     397.866297     125.304386       0.000000
    389.162279     406.573090     122.303287       0.000000
    390.026336     417.034789     122.707512       0.000000
    395.327854     425.658832     126.580521       0.000000
    401.377496     442.211854     127.156869       0.000000
    407.282244     470.063231     127.083835       0.000000
    397.473608     451.902607     125.147954       0.000000
    398.637391     472.977396     124.771336       0.000000
    402.178350     488.497973     125.604955       0.000000
    400.000000     500.000000     124.620772       0.000000
    410.000000      10.000000     123.897060       0.000000
    411.325437      28.477714     123.203448       0.000000
    401.692801      30.730809     121.819579       0.000000
    409.834483      37.377686     123.648181       0.000000
    425.195451      62.018130     123.058139       0.000000
    412.516072      57.074120     122.448969       0.000000
    404.803653      64.358478     122.579038       0.000000
    405.942068      95.668374     118.421437       0.000000
    416.894734      85.046073     121.379912       0.000000
    420.138367      93.685725     121.966941       0.000000
    411.376244     102.642368     120.314289       0.000000
    409.982280     123.894060     121.599058       0.000000
    425.963260     133.482660     124.730801       0.000000
    424.535455     144.313879     126.934603       0.000000
    401.589352     155.808829     125.715876       0.000000
    420.374894     162.915612     131.582883       0.000000
    409.987577     161.631852     128.686723       0.000000
    405.281504     174.731793     129.649078       0.000000
    404.278119     197.972255     125.633359       0.000000
    414.304807     195.598703     127.628211       0.000000
    411.907602     205.298366     126.206101       0.000000
    402.244580     218.015180     125.712396       0.000000
    411.276252     216.685184     125.598412       0.000000
    413.343462     245.603841     119.237106       0.000000
    414.691580     254.894360     117.860223       0.000000
    417.018897     264.453818     117.264302       0.000000
    408.054158     265.206117     116.791498       0.000000
    393.974532     265.382482     118.323967       0.000000
    400.582569     271.427809     116.535988       0.000000
    421.405719     302.012313     118.258519       0.000000
    420.826355     311.737179     117.720176       0.000000
    406.559852     329.336367     118.518512       0.000000
    423.496941     334.517287     124.324090       0.000000
    415.359129     357.533012     127.826164       0.000000
    405.370540     349.884428     124.791342       0.000000
    417.616741     365.913384     130.798039       0.000000
    407.968982     363.346716     127.542321       0.000000
    407.488736     382.572461     129.753130       0.000000
    427.927290     393.769843     132.699509       0.000000
    410.772265     409.750207     128.879436       0.000000
    404.347196     403.235605     126.683984       0.000000
    397.891021     409.803434     125.397025       0.000000
    401.782491     418.129591     128.119271       0.000000
    409.061260     436.636852     128.984982       0.000000
    404.016522     427.334842     128.270554       0.000000
    409.125439     449.152105     127.604162       0.000000
    417.465880     472.011011     129.724787       0.000000
    410.038923     482.747418     125.778963       0.000000
    413.010504     491.262346     126.011265       0.000000
    410.000000     500.000000     125.249048       0.000000
    420.000000      10.000000     125.112625       0.000000
    415.972127      19.766597     124.538993       0.000000
    421.536525      28.274053     123.304645       0.000000
    419.629060      50.693091     123.464620       0.000000
    427.617314      45.796471     123.724700       0.000000
    431.888271      53.926062     124.258755       0.000000
    415.626043      65.635173     122.311198       0.000000
    409.795959      76.606919     120.415476       0.000000
    429.057690      85.969149     121.576137       0.000000
    432.825252      95.151410     121.782370       0.000000
    421.349955     104.639555     121.044325       0.000000
    417.653577     115.037627     121.640889       0.000000
    415.908179     130.961376     123.361565       0.000000
    433.797436     124.621045     126.374769       0.000000
    433.647376     145.320812     127.986280       0.000000
    418.961944     152.322380     129.573121       0.000000
    401.410160     165.104328     126.754483       0.000000
    413.945852     170.706489     130.302947       0.000000
    414.561701     180.110645     129.134013       0.000000
    408.101874     187.744817     127.973015       0.000000
    419.344042     210.846150     125.399475       0.000000
    423.849329     219.048845     124.888631       0.000000
    427.603586     230.253814     125.383490       0.000000
    443.335593     247.622911     128.866647       0.000000
    425.195203     239.753391     123.836063       0.000000
    421.347559     249.639145     121.074139       0.000000
    421.890372     272.020566     117.849942       0.000000
    405.440876     280.215191     114.519651       0.000000
    412.026829     299.499990     115.622379       0.000000
    411.659958     319.306548     117.809700       0.000000
    429.518116     314.970427     120.943221       0.000000
    414.037084     333.448791     122.241926       0.000000
    418.477546     324.529980     120.806557       0.000000
    418.365717     347.476687     126.929352       0.000000
    425.325974     353.038774     128.937727       0.000000
    426.899630     362.253722     130.939576       0.000000
    413.085556     375.754396     132.210853       0.000000
    419.131839     385.851984     132.202548       0.000000
    423.500148     374.759646     133.060056       0.000000
    419.708749     408.410439     128.862918       0.000000
    411.212453     421.468345     128.964632       0.000000
    430.822682     420.241203     128.324072       0.000000
    424.360456     427.238693     128.943776       0.000000
    417.484263     442.695822     128.794474       0.000000
    404.756747     460.797037     125.761510       0.000000
    396.073755     463.791368     124.636187       0.000000
    426.761822     470.691169     129.709233       0.000000
    419.585144     482.969321     128.023195       0.000000
    425.736757     491.080293     126.947452       0.000000
    420.000000     500.000000     125.984913       0.000000
    430.000000      10.000000     126.249912       0.000000
    426.401682      18.435149     123.986138       0.000000
    432.136742      25.768388     124.090877       0.000000
    421.225056      37.477089     122.706156       0.000000
    434.818423      64.450174     122.925771       0.000000
    427.955687      73.736457     122.039410       0.000000
    418.751322      75.672399     121.183240       0.000000
    436.844571      79.551649     118.798737       0.000000
    441.353358     103.556729     123.590886       0.000000
    453.102426      86.562098     118.552734       0.000000
    431.841604     104.123029     122.436550       0.000000
    428.208273     112.415697     122.844806       0.000000
    424.307957     124.540619     122.642016       0.000000
    441.983883     120.325795     128.518718       0.000000
    438.177930     136.098006     128.158443       0.000000
    430.758536     166.432265     130.779991       0.000000
    423.280497     171.960503     131.277668       0.000000
    434.231131     177.378926     131.149884       0.000000
    423.604105     181.167752     129.866853       0.000000
    422.573917     191.219042     127.904095       0.000000
    422.453589     202.397798     127.091357       0.000000
    432.453077     207.167573     126.948301       0.000000
    437.138364     225.988931     126.074248       0.000000
    433.821252     237.848271     126.061362       0.000000
    434.552685     255.787508     124.253717       0.000000
    432.632423     246.634839     124.078754       0.000000
    427.977126     285.130647     119.031354       0.000000
    411.790425     273.728437     116.330561       0.000000
    409.225943     288.616600     114.507890       0.000000
    419.410785     293.066771     116.657977       0.000000
    429.198473     295.865618     120.819576       0.000000
    442.414597     319.791946     123.834148       0.000000
    436.883464     337.375053     124.446060       0.000000
    432.292223     328.048946     122.538269       0.000000
    428.444178     342.718222     125.131234       0.000000
    442.716300     345.400919     127.256180       0.000000
    432.230556     370.837664     132.729511       0.000000
    443.711026     387.069495     132.388092       0.000000
    430.636408     382.869130     133.737616       0.000000
    431.025949     402.361722     131.327294       0.000000
    441.606441     425.032352     125.883492       0.000000
    433.383222     429.109461     128.426682       0.000000
    415.480415     429.431890     128.322661       0.000000
    426.217926     440.190338     128.830501       0.000000
    417.581452     453.035764     129.127854       0.000000
    413.614742     461.971150     128.096242       0.000000
    423.178140     461.352154     130.475496       0.000000
    435.343284     467.942798     129.169649       0.000000
    429.323588     479.507921     128.768655       0.000000
    430.000000     500.000000     126.471261       0.000000
    440.000000      10.000000     126.731486       0.000000
    438.623400      19.054127     125.954697       0.000000
    447.013487      23.324904     126.586257       0.000000
    430.600542      35.185761     124.578747       0.000000
    447.284276      47.431858     125.467514       0.000000
    450.676012      63.564707     121.793835       0.000000
    442.279146      70.033255     120.808054       0.000000
    450.362345      77.409223     117.349947       0.000000
    461.782107      80.235143     117.720336       0.000000
    443.054128      87.999955     119.603531       0.000000
    456.644819     113.554045     124.726882       0.000000
    446.410248     110.850700     125.609522       0.000000
    437.606536     113.061789     124.962500       0.000000
    446.748768     158.374828     129.006904       0.000000
    445.710980     147.246913     129.791640       0.000000
    446.948169     174.384540     130.381421       0.000000
    427.932903     157.105967     130.060608       0.000000
    444.136170     185.421164     129.949023       0.000000
    432.080084     188.142210     129.112073       0.000000
    442.073320     204.767528     126.954844       0.000000
    434.772631     216.096188     126.984463       0.000000
    444.354338     219.618496     127.326175       0.000000
    449.022986     227.779677     127.636617       0.000000
    446.172683     256.594698     131.525455       0.000000
    429.763186     266.525706     121.391967       0.000000
    424.951543     258.734490     120.802706       0.000000
    436.119816     282.396250     122.999446       0.000000
    439.524013     291.290295     124.601650       0.000000
    417.083614     281.345201     116.443259       0.000000
    438.454957     301.261056     124.751498       0.000000
    429.563291     305.387600     121.031700       0.000000
    438.088564     311.868523     123.190340       0.000000
    449.297768     337.509186     125.654676       0.000000
    452.853734     346.925650     126.923045       0.000000
    444.772666     358.230899     129.005332       0.000000
    463.294726     361.901943     125.714871       0.000000
    435.671151     351.544162     127.223809       0.000000
    446.548395     396.400407     130.553660       0.000000
    437.584676     394.292762     132.050032       0.000000
    462.793447     386.207060     126.946361       0.000000
    433.856597     410.602432     128.904560       0.000000
    444.604666     416.023492     126.075033       0.000000
    451.891935     432.225690     122.228204       0.000000
    429.189795     448.739415     128.692441       0.000000
    434.873237     456.698003     128.802145       0.000000
    445.626391     451.503562     124.529772       0.000000
    442.922296     461.777351     127.315931       0.000000
    443.608692     471.271719     127.587089       0.000000
    434.988084     492.467183     126.052354       0.000000
    440.000000     500.000000     125.949440       0.000000
    450.000000      10.000000     127.269006       0.000000
    454.900048      17.864751     127.554806       0.000000
    454.444267      33.188324     126.981373       0.000000
    440.360614      30.087407     125.994986       0.000000
    439.228019      43.451729     126.170887       0.000000
    455.934135      53.561970     123.819891       0.000000
    457.244701      70.868724     118.932118       0.000000
    442.932607      57.276204     124.499685       0.000000
    459.519841      94.873089     119.542274       0.000000
    447.556641      96.918548     121.995517       0.000000
    465.510773     119.804821     125.105091       0.000000
    452.710992     120.842296     128.702307       0.000000
    447.258509     128.643241     130.363833       0.000000
    446.934610     138.310995     129.753700       0.000000
    456.310326     156.227021     128.422066       0.000000
    438.469239     154.860692     130.292029       0.000000
    440.300780     164.655258     130.594028       0.000000
    452.871747     187.655255     128.071841       0.000000
    431.403202     198.111180     127.337583       0.000000
    450.054130     198.746572     127.530373       0.000000
    453.819699     219.239513     127.208944       0.000000
    463.633329     216.646406     128.809071       0.000000
    455.943685     234.879519     128.619022       0.000000
    450.547323     241.664007     131.072556       0.000000
    442.662285     236.273849     127.975539       0.000000
    443.853189     274.571158     128.061702       0.000000
    436.366314     272.887250     122.655696       0.000000
    453.559802     291.925050     130.381267       0.000000
    460.940704     288.470420     134.512005       0.000000
    455.457472     303.301310     129.681395       0.000000
    446.834391     297.952708     126.328083       0.000000
    445.453568     306.663961     128.229743       0.000000
    443.847053     329.421539     123.814724       0.000000
    453.449387     326.126013     126.731295       0.000000
    459.281968     340.150012     125.715215       0.000000
    472.938064     363.306235     123.575055       0.000000
    467.798850     370.500221     125.347952       0.000000
    436.083258     362.501848     129.923219       0.000000
    439.593829     379.128030     133.773999       0.000000
    449.818915     378.379894     130.929988       0.000000
    442.973979     407.096700     128.919481       0.000000
    451.460952     408.535514     125.591032       0.000000
    445.601336     442.218101     124.292962       0.000000
    441.290152     434.139374     126.514575       0.000000
    436.395786     443.440775     126.821512       0.000000
    456.396496     457.782084     121.291818       0.000000
    452.036687     465.845650     124.579350       0.000000
    460.561205     471.797957     122.702063       0.000000
    438.198398     481.561533     126.552825       0.000000
    450.000000     500.000000     125.649738       0.000000
    460.000000      10.000000     125.852427       0.000000
    464.496007      18.281859     126.649626       0.000000
    463.414436      37.861982     126.069432       0.000000
    446.141510      37.671877     126.214393       0.000000
    455.478281      43.125586     125.539511       0.000000
    472.597127      47.240232     121.551003       0.000000
    469.127093      55.873985     121.159277       0.000000
    468.434683      72.907500     119.071519       0.000000
    467.346129      89.655539     118.665665       0.000000
    458.451164     104.473420     122.357368       0.000000
    477.574702     117.622485     124.665870       0.000000
    457.216764     136.932219     130.255105       0.000000
    470.519366     129.229262     127.784127       0.000000
    455.074374     146.538429     129.526329       0.000000
    466.950557     157.392772     128.707321       0.000000
    470.321383     176.128057     127.647429       0.000000
    461.299935     175.521026     128.570681       0.000000
    462.494232     186.204039     127.957469       0.000000
    439.333017     193.692715     127.092343       0.000000
    452.384103     208.031038     126.582554       0.000000
    461.657795     207.358202     126.796653       0.000000
    463.415530     227.107852     129.183404       0.000000
    455.568746     251.046328     133.836526       0.000000
    439.089612     263.429250     126.990292       0.000000
    448.297776     267.153321     131.974696       0.000000
    467.938802     257.989843     136.245100       0.000000
    445.383805     284.709667     127.125429       0.000000
    459.281971     270.723101     133.909468       0.000000
    451.764060     278.826168     132.360279       0.000000
    471.327923     296.003894     131.732501       0.000000
    462.052643     297.673205     132.746900       0.000000
    451.625049     316.609126     126.805780       0.000000
    459.826182     312.604855     128.894698       0.000000
    461.356757     322.406125     129.242626       0.000000
    462.453958     331.688491     127.627134       0.000000
    457.627158     354.990130     126.806443       0.000000
    465.783754     347.470990     125.069492       0.000000
    445.129043     367.155217     130.638485       0.000000
    459.284276     377.505548     128.318867       0.000000
    469.729917     392.087197     123.652715       0.000000
    452.504765     388.889467     129.131017       0.000000
    460.537679     396.779577     123.921527       0.000000
    452.156902     422.235862     122.672183       0.000000
    454.120482     443.251840     121.399516       0.000000
    462.016656     448.315712     118.788572       0.000000
    470.261710     455.133980     117.988623       0.000000
    464.420617     462.352955     119.459769       0.000000
    453.519132     480.680826     124.607231       0.000000
    445.111631     490.543947     125.859607       0.000000
    460.000000     500.000000     124.827978       0.000000
    470.000000      10.000000     123.691264       0.000000
    476.718731      19.591188     122.843853       0.000000
    461.529268      27.573656     127.378224       0.000000
    463.779122      47.272306     124.433141       0.000000
    474.966653      36.566194     123.848433       0.000000
    473.988604      65.549996     119.146618       0.000000
    478.991227      73.787646     118.293997       0.000000
    461.110206      61.701918     121.409094       0.000000
    472.703675      81.546683     118.612970       0.000000
    470.766579      98.894240     122.149552       0.000000
    468.479387     110.743711     122.735406       0.000000
    459.301918     127.650896     128.797169       0.000000
    466.597014     137.366346     130.050315       0.000000
    473.989480     164.171133     127.782013       0.000000
    454.298900     166.696123     129.305587       0.000000
    465.273098     166.540625     127.758945       0.000000
    471.654445     186.075984     126.755151       0.000000
    469.052535     196.612310     125.891399       0.000000
    460.157384     195.317904     126.381292       0.000000
    472.643021     205.506923     128.813441       0.000000
    476.516003     213.983432     130.149825       0.000000
    474.649380     222.814888     129.563807       0.000000
    462.641622     241.315237     130.184608       0.000000
    472.132890     242.547778     132.679264       0.000000
    454.514844     260.302848     133.523306       0.000000
    464.729717     249.355718     134.407459       0.000000
    477.052631     277.249525     133.709518       0.000000
    470.196546     285.110427     133.833597       0.000000
    466.420582     277.005535     135.432907       0.000000
    469.660379     306.429191     132.421923       0.000000
    479.985836     304.734426     130.665241       0.000000
    469.138107     315.977607     129.985531       0.000000
    470.803463     325.220438     128.557273       0.000000
    470.815146     338.419909     124.124096       0.000000
    473.522168     353.760841     123.326303       0.000000
    485.873829     374.331328     124.587432       0.000000
    456.526828     367.390756     128.932000       0.000000
    477.093344     371.809139     123.708442       0.000000
    469.871038     379.632037     125.670263       0.000000
    463.969843     406.176254     122.287384       0.000000
    472.157173     414.291056     122.440969       0.000000
    459.146291     416.048595     122.344169       0.000000
    472.459620     423.890221     120.854224       0.000000
    462.163782     438.871139     119.175857       0.000000
    462.271449     429.882430     119.918281       0.000000
    471.963060     444.020730     118.177283       0.000000
    471.154011     469.972063     120.135856       0.000000
    460.163895     488.915244     123.722884       0.000000
    471.116518     488.826919     122.325821       0.000000
    470.000000     500.000000     123.143457       0.000000
    480.000000      10.000000     120.980738       0.000000
    486.088624      18.177055     120.429889       0.000000
    482.221511      27.383782     121.142030       0.000000
    471.273354      26.426780     125.240297       0.000000
    482.975971      47.221375     117.840875       0.000000
    480.416845      57.020648     118.514117       0.000000
    483.012701      65.738899     117.411470       0.000000
    481.732964      83.882365     119.681384       0.000000
    477.170805      92.539247     121.288621       0.000000
    483.566687     101.153801     122.179013       0.000000
    478.220628     108.823695     122.842861       0.000000
    486.029266     114.015317     124.933030       0.000000
    477.302281     137.582904     130.093369       0.000000
    477.431187     147.004288     131.071858       0.000000
    468.166927     146.527744     130.281459       0.000000
    481.838175     157.400578     128.743422       0.000000
    483.049628     166.501720     128.116553       0.000000
    480.025902     175.750311     127.837877       0.000000
    482.659452     184.804323     127.195047       0.000000
    478.847405     195.707586     127.798339       0.000000
    483.471642     203.979272     130.957992       0.000000
    482.154420     228.478761     131.358784       0.000000
    480.145446     237.810604     132.683986       0.000000
    481.946604     247.067593     133.486965       0.000000
    473.960056     251.120326     134.788886       0.000000
    480.592157     259.359582     134.920618       0.000000
    470.102909     268.831648     136.331698       0.000000
    483.757464     269.135287     133.187608       0.000000
    492.289791     285.065792     128.424839       0.000000
    482.571625     284.840678     130.758941       0.000000
    481.062132     313.980911     127.910356       0.000000
    482.247563     322.973829     127.255231       0.000000
    477.177965     330.718933     124.668069       0.000000
    478.426828     342.992837     122.154305       0.000000
    483.397983     350.834790     122.138902       0.000000
    483.806008     360.277087     123.448510       0.000000
    491.449907     365.868294     123.802745       0.000000
    477.250962     385.316989     122.643913       0.000000
    479.956967     398.075274     121.418419       0.000000
    474.278828     405.470833     120.882560       0.000000
    481.881634     412.135343     120.842430       0.000000
    481.609147     425.201310     119.686237       0.000000
    471.142186     433.670822     118.313247       0.000000
    480.886067     434.206074     117.819828       0.000000
    480.881511     444.454763     116.715527       0.000000
    480.921992     455.414305     117.486570       0.000000
    476.764664     477.151039     119.931608       0.000000
    465.439825     480.439238     123.153130       0.000000
    480.283122     489.590872     119.761445       0.000000
    480.000000     500.000000     120.252837       0.000000
    490.000000      10.000000     120.151662       0.000000
    491.627609      25.204200     118.390423       0.000000
    492.400493      35.470006     117.366728       0.000000
    483.463952      37.166798     120.377749       0.000000
    491.942161      44.911946     115.444235       0.000000
    488.907077      54.384643     116.174338       0.000000
    491.789317      64.100628     116.042234       0.000000
    488.801776      72.735719     117.570804       0.000000
    491.666733      84.136292     118.250653       0.000000
    490.277940      93.234580     121.264289       0.000000
    492.438808     104.352531     123.371007       0.000000
    490.153211     127.371363     126.053589       0.000000
    480.693502     126.665250     126.999675       0.000000
    489.375924     138.548818     128.298161       0.000000
    491.371199     148.801971     129.744911       0.000000
    490.981849     158.238049     129.132990       0.000000
    490.087845     173.536240     127.959549       0.000000
    491.915785     184.491491     127.784921       0.000000
    492.135899     195.287052     130.602045       0.000000
    491.224290     207.904676     133.336977       0.000000
    485.478787     217.864382     132.484834       0.000000
    491.220789     225.306583     131.900736       0.000000
    471.205073     233.777201     130.405168       0.000000
    490.908369     234.363730     131.216988       0.000000
    492.177935     244.469538     131.638142       0.000000
    492.238091     255.358308     134.121410       0.000000
    491.657616     264.196585     132.378137       0.000000
    491.739909     275.674343     130.574070       0.000000
    489.710045     297.740272     128.455160       0.000000
    480.933866     294.336700     129.398657       0.000000
    490.916513     308.250899     129.381463       0.000000
    490.426475     317.303511     127.510530       0.000000
    491.209838     326.431205     124.963014       0.000000
    489.158066     336.644442     123.773807       0.000000
    492.358919     345.392441     123.005195       0.000000
    491.413217     355.242784     122.375640       0.000000
    490.783482     381.893637     123.587142       0.000000
    490.351316     391.134710     122.426278       0.000000
    490.561603     401.954258     121.314501       0.000000
    490.902133     411.185073     120.778472       0.000000
    491.035495     420.412772     119.925327       0.000000
    489.580331     430.656684     117.777972       0.000000
    491.432056     442.758047     116.320047       0.000000
    489.731946     451.602337     116.774258       0.000000
    489.900029     462.533170     117.144407       0.000000
    479.028260     464.664625     118.445049       0.000000
    489.895233     471.650931     118.382073       0.000000
    487.714157     480.428844     119.130999       0.000000
    490.455585     490.329051     118.977844       0.000000
    490.000000     500.000000     119.562531       0.000000
    500.000000      10.000000     119.361990       0.000000
    500.000000      20.000000     117.306000       0.000000
    500.000000      30.000000     116.383631       0.000000
    500.000000      40.000000     115.218827       0.000000
    500.000000      50.000000     115.352081       0.000000
    500.000000      60.000000     115.894358       0.000000
    500.000000      70.000000     115.950997       0.000000
    500.000000      80.000000     116.903885       0.000000
    500.000000      90.000000     118.066260       0.000000
    500.000000     100.000000     120.782370       0.000000
    500.000000     110.000000     121.695254       0.000000
    500.000000     120.000000     123.476217       0.000000
    500.000000     130.000000     124.425723       0.000000
    500.000000     140.000000     126.936009       0.000000
    500.000000     150.000000     127.388723       0.000000
    500.000000     160.000000     128.268971       0.000000
    500.000000     170.000000     128.679357       0.000000
    500.000000     180.000000     130.056487       0.000000
    500.000000     190.000000     130.603898       0.000000
    500.000000     200.000000     132.205246       0.000000
    500.000000     210.000000     133.639433       0.000000
    500.000000     220.000000     133.683959       0.000000
    500.000000     230.000000     132.087225       0.000000
    500.000000     240.000000     131.453451       0.000000
    500.000000     250.000000     132.247482       0.000000
    500.000000     260.000000     131.415913       0.000000
    500.000000     270.000000     129.968481       0.000000
