    269.245701     212.212648     114.305242       0.000000
    250.035039     227.485196     113.123201       0.000000
    271.807195     223.037647     115.476221       0.000000
    264.332313     230.410815     117.238325       0.000000
    284.428708     255.668333     124.516069       0.000000
    267.403720     265.519642     125.791128       0.000000
    272.104022     245.232118     121.127047       0.000000
    253.850485     280.148788     128.560069       0.000000
    282.483114     300.231629     123.294905       0.000000
    272.937282     299.188542     124.500105       0.000000
    291.857530     310.062952     121.982937       0.000000
    281.532845     311.051691     121.948249       0.000000
    259.476808     320.901881     121.262197       0.000000
    266.180026     349.134273     120.923835       0.000000
    275.963244     355.762430     126.343739       0.000000
    269.602184     365.328975     129.833280       0.000000
    274.142091     374.125107     131.912550       0.000000
    277.428447     382.328365     133.786440       0.000000
    277.223638     395.995765     132.955074       0.000000
    268.728697     391.424867     130.674915       0.000000
    263.553699     401.173539     130.092762       0.000000
    266.261453     410.463800     131.948163       0.000000
    271.060498     420.973689     132.264574       0.000000
    260.632122     428.921715     127.505928       0.000000
    271.328554     434.311531     127.456960       0.000000
    269.774092     442.945164     125.361748       0.000000
    273.547178     460.070109     122.352651       0.000000
    279.477767     481.534676     125.034797       0.000000
    267.731149     487.046459     124.662714       0.000000
    270.000000     500.000000     124.661607       0.000000
    280.000000      10.000000     124.759195       0.000000
    285.571008      19.406348     124.440685       0.000000
    276.431452      31.044397     124.711677       0.000000
    272.936527      39.362985     122.189577       0.000000
    282.067842      49.486226     121.510767       0.000000
    286.533651      61.302115     123.028346       0.000000
    281.755940      69.599570     122.843859       0.000000
    284.094328      79.428958     125.043129       0.000000
    272.681280      85.783064     124.556130       0.000000
    289.232509      92.091162     131.083834       0.000000
    266.727328     106.548978     130.873303       0.000000
    269.049155     117.190800     133.234161       0.000000
    287.189782     151.720101     129.943749       0.000000
    265.407527     144.208716     127.941309       0.000000
    284.024128     142.233203     131.976990       0.000000
    277.571157     148.454854     127.920773       0.000000
    274.993097     175.110254     118.781000       0.000000
    289.535408     161.303934     127.201293       0.000000
    287.694290     215.569890     112.918865       0.000000
    279.041297     210.687681     113.723776       0.000000
    291.584937     223.715447     114.408592       0.000000
    282.414497     223.019278     115.607268       0.000000
    281.333732     232.519387     117.469327       0.000000
    272.294479     235.124278     118.247219       0.000000
    281.263165     243.636919     121.526561       0.000000
    286.021578     268.731956     126.412756       0.000000
    261.539086     273.868966     126.769679       0.000000
    273.870882     276.730720     126.607367       0.000000
    274.688603     289.144368     125.916578       0.000000
    283.944042     289.762442     124.476334       0.000000
    271.862525     310.188633     122.845994       0.000000
    269.250721     328.609415     118.860712       0.000000
    278.969007     327.994588     118.557864       0.000000
    264.628973     340.355241     118.667602       0.000000
    279.803959     348.344540     122.860329       0.000000
    283.295366     363.801037     129.871791       0.000000
    285.193886     372.690984     132.170439       0.000000
    286.202966     385.137147     133.077749       0.000000
    284.962174     407.866310     134.631444       0.000000
    273.185917     404.242434     132.436834       0.000000
    275.551744     412.953472     133.682387       0.000000
    290.412405     426.975988     128.434391       0.000000
    276.950661     427.067256     129.070110       0.000000
    294.321992     439.009435     127.983579       0.000000
    279.516353     441.613571     125.666545       0.000000
    277.493095     450.463696     125.238698       0.000000
    274.763187     471.199006     122.744453       0.000000
    283.464562     471.395164     125.595884       0.000000
    280.123929     490.982651     126.899686       0.000000
    280.000000     500.000000     125.917842       0.000000
    290.000000      10.000000     126.570803       0.000000
    294.398220      20.430180     125.970386       0.000000
    288.444468      30.071461     125.236048       0.000000
    281.768043      40.153649     123.848634       0.000000
    291.216520      43.027401     124.715558       0.000000
    294.709032      52.582191     125.370431       0.000000
    297.693460      64.111272     125.107902       0.000000
    291.858000      83.068324     128.240858       0.000000
    280.991911      88.446246     128.571065       0.000000
    298.792243      91.956777     132.515616       0.000000
    294.324081     103.711672     135.913563       0.000000
    296.292270     112.832642     135.510650       0.000000
    276.713456     104.588819     132.043480       0.000000
    278.535845     115.555817     133.734088       0.000000
    300.834227     149.635001     133.771555       0.000000
    297.532444     157.628722     130.145507       0.000000
    280.977534     158.538572     125.469661       0.000000
    297.088406     185.070707     120.013078       0.000000
    284.324300     190.425549     113.949878       0.000000
    292.131242     202.696872     113.265453       0.000000
    297.168903     210.167188     113.728174       0.000000
    296.123082     232.289937     117.786794       0.000000
    308.284113     237.210311     119.721084       0.000000
    290.498088     239.134826     119.999139       0.000000
    291.599511     249.879831     122.984095       0.000000
    294.480443     264.219024     126.265228       0.000000
    276.467065     267.461158     126.896231       0.000000
    284.914982     278.080123     126.357130       0.000000
    292.312999     293.185307     124.059248       0.000000
    287.899166     318.441807     120.722921       0.000000
    296.152013     322.542640     120.062794       0.000000
    277.555375     318.885406     119.659566       0.000000
    287.405308     331.484269     118.902853       0.000000
    274.383821     339.278212     118.254173       0.000000
    286.580928     340.898701     118.972108       0.000000
    291.252172     348.193023     122.742212       0.000000
    285.724029     355.344319     127.393917       0.000000
    291.789406     367.456902     127.833202       0.000000
    287.931866     395.927094     133.590285       0.000000
    302.006212     394.651308     129.914272       0.000000
    282.725225     419.556368     131.421122       0.000000
    299.406058     427.069174     127.099981       0.000000
    283.940316     433.753815     127.286083       0.000000
    288.356533     447.634127     126.179056       0.000000
    302.263168     445.063150     125.460375       0.000000
    296.846241     453.854264     126.423141       0.000000
    283.575434     458.125315     125.397716       0.000000
    291.859412     478.420066     127.900753       0.000000
    289.217623     490.125441     127.982581       0.000000
    290.000000     500.000000     127.539699       0.000000
    300.000000      10.000000     128.039647       0.000000
    302.207033      28.172847     127.158337       0.000000
    299.773066      39.594716     127.316455       0.000000
    309.406901      40.775967     128.520412       0.000000
    306.592846      60.955955     125.544723       0.000000
    309.820295      69.681000     125.971261       0.000000
    292.039972      73.911386     126.349951       0.000000
    301.062827      73.712559     127.264231       0.000000
    303.311237     100.396094     136.142550       0.000000
    320.815639      94.892380     132.519179       0.000000
    311.666923      91.101290     131.726762       0.000000
    305.345509     109.612840     138.027102       0.000000
    286.735146     111.883264     134.599882       0.000000
    297.529475     127.052936     137.959575       0.000000
    307.937274     156.714806     133.340965       0.000000
    303.414243     167.374346     127.965396       0.000000
    293.964700     172.100297     125.094004       0.000000
    301.660710     176.880048     122.590937       0.000000
    293.480301     193.027961     115.444174       0.000000
    305.529924     206.460928     114.402477       0.000000
    308.828580     216.203865     115.260557       0.000000
    300.257223     219.017914     114.740256       0.000000
    304.369928     226.670194     117.151911       0.000000
    300.044977     240.704480     121.390252       0.000000
    298.374046     255.803736     124.372881       0.000000
    317.494168     265.480045     124.142986       0.000000
    303.798107     267.568708     126.108835       0.000000
    295.954328     274.496976     127.251852       0.000000
    303.089695     294.627024     122.427247       0.000000
    297.620675     302.243777     122.720160       0.000000
    306.092350     305.923695     122.111247       0.000000
    304.506143     326.089999     119.387767       0.000000
    306.132041     336.865270     119.807144       0.000000
    297.764360     332.074831     117.903833       0.000000
    300.972795     344.732777     121.075669       0.000000
    295.465231     356.340835     126.181480       0.000000
    302.609934     363.501163     123.933300       0.000000
    293.738219     376.390250     130.526926       0.000000
    304.891269     385.134034     127.663470       0.000000
    313.251057     389.343534     124.559084       0.000000
    294.107290     403.815421     133.312663       0.000000
    297.181094     416.536485     130.808783       0.000000
    304.864549     434.913284     124.870020       0.000000
    312.080341     444.657933     123.105300       0.000000
    320.583460     451.267145     124.201678       0.000000
    291.045859     465.429030     126.118216       0.000000
    300.094876     472.335036     129.089209       0.000000
    310.958998     488.942899     130.451572       0.000000
    300.590195     481.390716     129.587969       0.000000
    300.000000     500.000000     128.488184       0.000000
    310.000000      10.000000     129.978945       0.000000
    304.770058      18.938268     128.314727       0.000000
    310.772830      31.291954     129.945862       0.000000
    304.325168      50.904664     127.336523       0.000000
    326.119942      64.499917     123.430509       0.000000
    326.496224      55.266518     125.388159       0.000000
    312.539096      78.234085     128.120241       0.000000
    319.782303      71.221916     125.586657       0.000000
    302.568776      82.595783     128.720256       0.000000
    329.492519      86.893072     127.219558       0.000000
    305.388535     120.607884     139.477800       0.000000
    290.967859     120.669351     135.489883       0.000000
    301.584308     136.028386     135.799720       0.000000
    292.700317     143.781800     134.026541       0.000000
    312.172576     148.694095     135.585124       0.000000
    321.391503     152.210330     132.491479       0.000000
    311.987504     173.548110     122.547298       0.000000
    320.322999     177.527865     121.324167       0.000000
    302.183742     195.507814     114.843150       0.000000
    314.788548     196.969969     115.410750       0.000000
    316.073878     207.333726     115.911792       0.000000
    313.755936     225.566100     118.529734       0.000000
    325.459138     226.976855     121.614108       0.000000
    319.647521     235.239091     121.705038       0.000000
    310.001680     260.458821     124.556268       0.000000
    306.343120     277.695775     126.389725       0.000000
    307.856322     286.899509     125.077670       0.000000
    296.813888     284.447408     124.858801       0.000000
    320.224693     283.501803     123.453662       0.000000
    328.073568     294.791925     123.572797       0.000000
    313.380344     296.887777     124.824840       0.000000
    301.878209     314.941458     121.336360       0.000000
    315.048174     322.370750     120.159593       0.000000
    314.196370     331.888852     119.217059       0.000000
    321.969635     352.446041     119.373141       0.000000
    318.726004     339.805866     120.736893       0.000000
    310.607162     344.394024     122.291618       0.000000
    301.062398     373.282176     126.211188       0.000000
    310.933280     376.483589     125.065829       0.000000
    294.217987     389.462452     132.742699       0.000000
    306.154263     405.717133     129.186902       0.000000
    305.767970     414.660266     127.630240       0.000000
    316.299419     420.363866     121.712527       0.000000
    318.189710     468.549194     128.166026       0.000000
    314.763741     459.140410     127.226603       0.000000
    307.441962     453.029579     125.310597       0.000000
    300.872489     463.245103     127.281085       0.000000
    312.637349     479.636984     129.322761       0.000000
    299.676151     490.361087     128.875832       0.000000
    310.000000     500.000000     129.559314       0.000000
    320.000000      10.000000     131.355885       0.000000
    314.381789      18.524617     130.442396       0.000000
    319.707374      28.488547     129.962672       0.000000
    314.541065      49.419688     126.766479       0.000000
    315.818904      59.024858     124.952970       0.000000
    333.119898      70.549483     122.646486       0.000000
    344.525977      70.937303     122.879097       0.000000
    327.528280      77.638841     124.828202       0.000000
    319.293037      85.403750     128.958740       0.000000
    332.351227     109.320833     132.538951       0.000000
    324.383008     104.139562     134.187005       0.000000
    312.759011     115.346100     138.390805       0.000000
    312.494593     129.463110     137.821781       0.000000
    311.407236     139.246839     137.025055       0.000000
    321.416484     131.467132     136.505072       0.000000
    330.779847     173.465616     122.809531       0.000000
    315.686134     161.784616     130.851978       0.000000
    318.758605     187.010940     117.777520       0.000000
    308.224040     185.778071     118.181474       0.000000
    325.173621     204.204788     116.438839       0.000000
    321.690179     218.918945     118.034687       0.000000
    333.764063     221.764549     122.321135       0.000000
    315.009411     243.496250     123.163826       0.000000
    305.849110     248.303326     123.400759       0.000000
    324.452606     256.301074     124.875645       0.000000
    314.754246     252.738821     123.104783       0.000000
    338.215305     262.051635     125.290963       0.000000
    314.532519     274.848535     123.473890       0.000000
    331.747374     282.025788     122.659121       0.000000
    318.774992     304.183556     123.658300       0.000000
    313.724999     312.027907     121.091733       0.000000
    336.127590     332.667664     117.680080       0.000000
    326.518352     344.168125     118.108714       0.000000
    345.690938     333.076912     116.634732       0.000000
    332.411585     352.438247     116.657477       0.000000
    313.127539     356.507375     121.056964       0.000000
    304.774881     352.769849     123.383573       0.000000
    311.978880     365.938159     122.329705       0.000000
    319.750941     395.241135     120.940849       0.000000
    322.704206     404.229367     119.528216       0.000000
    308.146491     423.714965     124.845470       0.000000
    315.865830     429.902606     121.181707       0.000000
    330.395330     446.119356     121.321234       0.000000
    325.582279     424.368342     119.446875       0.000000
    324.071193     460.132967     126.597187       0.000000
    349.242562     448.273378     120.275072       0.000000
    308.983032     470.776744     128.385094       0.000000
    323.018118     482.377680     128.843707       0.000000
    319.986758     490.876043     131.382003       0.000000
    320.000000     500.000000     130.917389       0.000000
    330.000000      10.000000     131.553898       0.000000
    338.232827      20.013791     129.732660       0.000000
    327.783113      19.109620     131.949686       0.000000
    328.738729      29.890479     129.011088       0.000000
    318.641972      37.500140     129.120519       0.000000
    346.934002      55.494494     122.902402       0.000000
    335.546528      50.585038     124.207171       0.000000
    332.743919      94.955898     129.755208       0.000000
    350.599866      94.207723     125.329887       0.000000
    322.349863     112.718294     136.392619       0.000000
    336.764604     117.227986     133.022619       0.000000
    339.895440     101.215510     129.853833       0.000000
    318.448503     122.341210     137.525642       0.000000
    330.300638     130.825839     133.967851       0.000000
    319.942790     142.517816     134.877189       0.000000
    321.284844     167.719605     126.495427       0.000000
    326.436072     160.063445     128.474866       0.000000
    330.512136     184.080322     118.359849       0.000000
    334.422204     194.990333     117.574085       0.000000
    334.488057     204.124908     117.925233       0.000000
    330.228440     213.459290     118.721336       0.000000
    328.429284     236.014930     123.976144       0.000000
    332.027108     244.433236     125.643601       0.000000
    323.663207     247.111146     123.487846       0.000000
    335.172748     253.638246     126.374522       0.000000
    328.573521     265.011437     125.048407       0.000000
    335.257214     271.479067     124.224725       0.000000
    325.474883     273.354631     122.937732       0.000000
    341.097931     283.029554     123.667291       0.000000
    335.944168     290.570070     122.071081       0.000000
    325.769166     334.380871     119.169258       0.000000
    323.239685     313.332247     120.732307       0.000000
    327.809169     324.319197     119.610853       0.000000
    335.300042     342.139188     116.769357       0.000000
    345.019692     353.343593     114.394493       0.000000
    327.883630     370.877736     120.079519       0.000000
    323.445183     362.297983     119.790882       0.000000
    319.270261     373.202745     122.115606       0.000000
    321.389201     384.211934     120.679352       0.000000
    328.361836     396.086399     117.762219       0.000000
    312.443647     399.347909     124.996092       0.000000
    325.709391     413.268504     119.708432       0.000000
    338.084064     426.283145     118.517424       0.000000
    322.610120     439.214319     120.826939       0.000000
    340.194528     444.689076     119.500406       0.000000
    332.269839     464.795871     124.987361       0.000000
    330.181227     473.492711     126.087857       0.000000
    330.041647     490.223998     130.488299       0.000000
    344.896539     489.027492     129.337559       0.000000
    330.000000     500.000000     130.498876       0.000000
    340.000000      10.000000     129.655643       0.000000
    346.999885      18.572239     127.816333       0.000000
    337.797349      29.161455     128.312584       0.000000
    343.682038      35.451389     125.440645       0.000000
    333.024803      38.135004     127.004692       0.000000
    337.702366      61.429745     122.485386       0.000000
    323.463397      46.198054     126.735919       0.000000
    337.855771      81.922316     123.801793       0.000000
    341.205031      92.793838     125.848348       0.000000
    344.856477     112.051123     131.006667       0.000000
    315.176143     103.110143     136.482258       0.000000
    340.714033     126.283244     131.444407       0.000000
    327.665711     121.011617     135.136059       0.000000
    351.726715     128.335787     127.819061       0.000000
    332.794146     139.433891     132.560826       0.000000
    341.182269     174.922507     122.116856       0.000000
    348.340474     180.867033     121.135317       0.000000
    354.298581     189.415879     119.180964       0.000000
    325.105300     195.050093     116.139438       0.000000
    340.008205     183.999838     119.317031       0.000000
    343.885297     203.100269     118.468866       0.000000
    335.587788     230.537410     124.149527       0.000000
    345.274424     232.101625     124.447583       0.000000
    343.812930     250.889106     127.171450       0.000000
    340.969773     242.125585     126.067024       0.000000
    345.983876     267.898667     125.451142       0.000000
    351.930203     259.487401     127.407450       0.000000
    348.975056     276.661745     125.256095       0.000000
    344.675809     293.032056     120.981729       0.000000
    334.796386     313.162345     118.471420       0.000000
    340.169608     321.646609     116.969718       0.000000
    350.968409     320.834714     115.573254       0.000000
    344.349228     344.161455     115.229011       0.000000
    353.535095     342.851546     115.964279       0.000000
    343.927877     362.310980     115.820409       0.000000
    333.883575     361.481506     117.194142       0.000000
    338.639620     369.887856     118.112194       0.000000
    345.516994     388.881550     115.082050       0.000000
    330.848869     380.773166     118.105382       0.000000
    336.770043     404.478366     115.403794       0.000000
    317.117085     411.106882     123.018288       0.000000
    333.370522     417.736199     118.053844       0.000000
    343.508635     416.527854     115.322045       0.000000
    329.920908     433.500148     118.532469       0.000000
    356.677821     431.661424     117.954141       0.000000
    341.687888     435.378134     117.235699       0.000000
    335.457453     454.183115     122.048375       0.000000
    339.220440     471.538639     125.824610       0.000000
    354.552060     491.750304     127.858495       0.000000
    340.000000     500.000000     129.861066       0.000000
    350.000000      10.000000     127.739820       0.000000
    356.510499      20.910840     125.648054       0.000000
    350.078699      27.791197     125.554077       0.000000
    351.586981      40.035295     124.198978       0.000000
    343.902615      45.846088     124.320076       0.000000
    352.435817      65.326667     122.107427       0.000000
    352.382504      74.968328     121.104603       0.000000
    348.832159      83.238466     122.627717       0.000000
    360.270556      97.284260     122.693112       0.000000
    359.325753     110.623361     123.950204       0.000000
    351.167430     118.248730     128.127145       0.000000
    359.941933     120.916971     125.066692       0.000000
    341.741270     135.596290     131.078622       0.000000
    340.212609     146.087574     132.158944       0.000000
    338.452058     166.234660     124.659483       0.000000
    348.079443     149.415615     127.269864       0.000000
    344.534477     159.431890     125.603168       0.000000
    351.197544     167.739085     123.741550       0.000000
    352.852358     198.664960     119.941787       0.000000
    344.872901     191.577083     118.447336       0.000000
    339.699135     212.202852     119.969971       0.000000
    358.099701     206.304368     121.388068       0.000000
    343.145293     220.377841     123.067890       0.000000
    350.199512     244.110044     126.606556       0.000000
    361.631976     241.744901     126.628751       0.000000
    357.806995     250.425970     126.495413       0.000000
    358.398857     270.787923     126.000782       0.000000
    367.466518     268.716208     124.436774       0.000000
    350.088852     285.440480     123.567950       0.000000
    329.622560     303.952301     121.221339       0.000000
    346.207534     310.963439     116.545698       0.000000
    366.849255     314.410125     113.890080       0.000000
    355.188606     312.843322     114.944218       0.000000
    354.002939     352.173144     116.229608       0.000000
    356.466181     360.887997     116.132196       0.000000
    348.169047     373.773598     114.728616       0.000000
    339.727574     380.217056     115.819071       0.000000
    352.465650     381.696905     114.651561       0.000000
    336.965378     392.606293     115.741025       0.000000
    356.958289     402.294012     116.512612       0.000000
    346.899314     398.994112     115.950210       0.000000
    349.666069     409.027902     115.696645       0.000000
    348.756803     427.924371     115.679337       0.000000
    352.171916     439.513362     118.559961       0.000000
    350.509279     457.408510     123.310292       0.000000
    342.232456     461.866294     123.967578       0.000000
    348.335758     469.259924     124.729028       0.000000
    335.692116     481.716375     127.701326       0.000000
    364.117474     490.529088     127.059621       0.000000
    350.000000     500.000000     128.955928       0.000000
    360.000000      10.000000     126.698575       0.000000
    365.771965      21.647488     126.020484       0.000000
    366.228037      37.029709     125.699184       0.000000
    356.228977      52.311552     123.703261       0.000000
    375.226585      52.559819     124.340063       0.000000
    363.663218      57.979596     122.493495       0.000000
    362.019561      67.444055     119.835735       0.000000
    369.997806      82.584037     118.858293       0.000000
    360.467191      88.316473     120.953764       0.000000
    372.622932     105.499459     120.867431       0.000000
    379.223366     116.514928     121.337846       0.000000
    359.221980     133.205409     125.423304       0.000000
    337.445805     155.261451     130.754955       0.000000
    330.254113     149.012820     132.801844       0.000000
    361.668755     143.908900     123.959446       0.000000
    364.676279     157.432597     120.969167       0.000000
    355.708766     153.112888     123.179167       0.000000
    357.416439     180.776645     120.068730       0.000000
    364.006124     196.883263     120.523160       0.000000
    372.972325     199.892865     123.198454       0.000000
    367.078950     207.852787     123.230930       0.000000
    350.112410     212.577104     121.364857       0.000000
    354.758712     224.054783     124.074011       0.000000
    375.055162     243.089936     126.237541       0.000000
    369.241998     252.604090     125.435874       0.000000
    362.872037     258.947534     126.439055       0.000000
    375.248181     272.433196     120.253081       0.000000
    365.776746     288.321256     119.814778       0.000000
    348.788506     300.931786     118.237818       0.000000
    339.430112     301.289876     119.078257       0.000000
    358.827925     304.326418     116.951546       0.000000
    367.274066     332.682609     116.242582       0.000000
    355.344629     332.768902     116.859008       0.000000
    371.581167     340.743196     114.533129       0.000000
    363.012526     343.877719     115.536413       0.000000
    365.729754     353.498707     115.406424       0.000000
    359.596598     372.220655     115.495819       0.000000
    363.073655     384.543663     116.914993       0.000000
    369.652041     394.550311     117.663883       0.000000
    362.344061     416.046173     115.930935       0.000000
    368.294219     403.947305     117.340959       0.000000
    353.837987     419.787023     115.256908       0.000000
    366.609806     435.616832     119.302567       0.000000
    360.339037     442.688749     120.739531       0.000000
    358.611913     451.596768     121.600660       0.000000
    356.960292     473.118695     125.160517       0.000000
    356.065496     482.371204     126.961101       0.000000
    346.859841     479.468075     127.574528       0.000000
    373.226970     486.467906     124.382474       0.000000
    360.000000     500.000000     127.096656       0.000000
    370.000000      10.000000     125.703860       0.000000
    374.935411      18.219535     126.439155       0.000000
    358.303364      31.929635     125.092412       0.000000
    363.489299      45.618184     124.716984       0.000000
    374.176770      61.285118     122.379230       0.000000
    361.241934      77.679925     119.697797       0.000000
    381.110922      73.429374     118.572175       0.000000
    395.227847      83.797864     119.481403       0.000000
    371.024079      96.051354     119.791106       0.000000
    351.356499     104.661739     126.890162       0.000000
    374.156760     123.970513     121.438936       0.000000
    369.140816     115.530052     122.296585       0.000000
    367.876208     130.834112     123.856837       0.000000
    389.310236     129.599729     119.457990       0.000000
    350.150770     140.335539     126.766416       0.000000
    373.355806     138.424084     122.530649       0.000000
    374.775147     148.670511     123.480608       0.000000
    368.061154     175.912755     119.499455       0.000000
    365.160921     186.784005     120.561348       0.000000
    374.952673     214.184468     124.839253       0.000000
    358.660962     215.281096     122.853735       0.000000
    363.971902     222.401517     124.947293       0.000000
    354.813360     235.543020     125.715799       0.000000
    366.321078     231.198641     126.107207       0.000000
    381.292788     251.501854     123.685418       0.000000
    373.918700     260.406738     123.958473       0.000000
    384.768648     259.421713     120.520183       0.000000
    358.140155     279.954303     123.893139       0.000000
    368.280578     296.595035     115.884367       0.000000
    356.511958     294.742265     120.103821       0.000000
    371.228261     305.174386     114.245774       0.000000
    386.457764     316.671619     110.947827       0.000000
    361.123341     322.231178     115.013241       0.000000
    386.600892     327.416975     113.397479       0.000000
    377.698237     330.043487     114.703390       0.000000
    374.639491     349.568342     116.054393       0.000000
    368.182370     362.932964     117.004579       0.000000
    371.364531     372.190179     117.007378       0.000000
    355.533634     393.402287     117.270160       0.000000
    378.896589     401.734373     119.615021       0.000000
    382.573852     421.653950     119.736539       0.000000
    373.777673     423.391249     118.714657       0.000000
    365.172122     425.822547     117.353768       0.000000
    373.059776     445.302233     121.784579       0.000000
    380.526967     450.552946     122.877372       0.000000
    358.403696     463.920887     123.907781       0.000000
    366.665202     455.589270     123.354959       0.000000
    368.721871     477.363801     124.679158       0.000000
    382.089623     490.732103     122.842663       0.000000
    370.000000     500.000000     125.505501       0.000000
    380.000000      10.000000     123.726075       0.000000
    385.926177      19.181964     123.308772       0.000000
    373.154021      27.610239     126.318409       0.000000
    384.516101      45.898589     122.968447       0.000000
    393.052249      38.297393     123.503614       0.000000
    388.070689      54.752534     121.381572       0.000000
    370.780106      69.506955     119.837424       0.000000
    383.922217      64.125368     120.710386       0.000000
    382.051515     102.075975     118.417794       0.000000
    386.578258     110.011567     118.603545       0.000000
    397.651757     112.271932     117.843372       0.000000
    387.724720     120.442917     119.513572       0.000000
    383.536470     143.076558     122.965724       0.000000
    380.175957     131.121323     119.514752       0.000000
    374.675817     162.513912     120.005419       0.000000
    393.647556     148.783663     124.481410       0.000000
    362.664794     166.586736     120.235589       0.000000
    376.881446     171.344086     120.409194       0.000000
    375.726196     191.155310     123.614705       0.000000
    389.342024     207.333915     127.260634       0.000000
    387.329087     218.715962     127.240362       0.000000
    396.812349     225.030324     125.697225       0.000000
    374.330363     224.513324     126.958671       0.000000
    388.498228     229.150345     125.470556       0.000000
    378.489708     232.711258     125.539569       0.000000
    383.584082     269.356909     118.816011       0.000000
    380.837533     279.084035     117.037135       0.000000
    369.733399     279.868214     121.305592       0.000000
    375.472111     287.072214     115.972197       0.000000
    377.826000     296.825578     113.362126       0.000000
    373.053163     322.124515     114.103289       0.000000
    393.708452     308.254146     110.956385       0.000000
    382.223580     338.193580     115.699223       0.000000
    384.710239     346.949163     117.654408       0.000000
    390.724215     354.678065     120.847267       0.000000
    380.496348     357.124998     118.411208       0.000000
    379.877680     369.893596     118.821309       0.000000
    396.217223     377.851680     126.911401       0.000000
    381.751836     379.622374     119.989275       0.000000
    373.640023     383.927037     118.210396       0.000000
    370.969445     414.178837     117.853529       0.000000
    385.274988     430.475042     123.076652       0.000000
    381.702818     441.494097     122.007513       0.000000
    375.223179     433.600283     120.960231       0.000000
    389.294377     446.725571     123.978539       0.000000
    375.602151     459.041626     123.512865       0.000000
    366.764699     467.284989     125.003599       0.000000
    380.849475     481.494924     123.665088       0.000000
    388.528802     472.741174     124.638440       0.000000
    380.000000     500.000000     123.704565       0.000000
    390.000000      10.000000     123.171108       0.000000
    396.713436      19.596214     121.777097       0.000000
    374.261312      43.525066     124.152685       0.000000
    381.612430      36.606032     123.951557       0.000000
    402.183412      41.521463     122.631871       0.000000
    394.307905      48.354894     123.018900       0.000000
    390.263206      74.246849     119.552454       0.000000
    399.531993      72.076813     120.223522       0.000000
    385.254496      81.778036     118.067257       0.000000
    378.720962      88.397794     119.149426       0.000000
    393.347140     103.250474     117.753371       0.000000
    406.620361     110.860981     119.526856       0.000000
    398.622724     130.672515     120.731857       0.000000
    393.510984     138.537271     121.788488       0.000000
    383.372989     156.814596     121.913320       0.000000
    390.891419     161.506369     125.065969       0.000000
    385.318714     168.573152     124.520716       0.000000
    385.289850     177.993056     123.884586       0.000000
    380.511225     206.340102     124.426258       0.000000
    385.943081     198.168793     125.650890       0.000000
    394.850350     199.981432     128.326178       0.000000
    395.778025     215.170230     127.566332       0.000000
    407.767333     230.058539     124.513639       0.000000
    403.991577     238.111418     121.517442       0.000000
    394.176958     237.167716     123.040870       0.000000
    383.964588     240.617429     125.116715       0.000000
    393.583650     257.775033     119.257528       0.000000
    384.925278     286.795595     112.708380       0.000000
    392.604387     295.819335     110.486533       0.000000
    376.796231     312.973723     112.431384       0.000000
    381.893615     304.774946     111.310711       0.000000
    403.953622     303.894016     112.974917       0.000000
    396.098158     332.072835     113.964006       0.000000
    391.569065     340.305836     115.914809       0.000000
    397.697992     348.417104     120.320013       0.000000
    387.007523     364.053780     121.654183       0.000000
    388.619130     374.099375     123.724917       0.000000
    398.756255     386.711114     127.039537       0.000000
    387.496148     386.312197     123.650018       0.000000
    378.876997     391.940034     119.640441       0.000000
    386.715617     396.240835     121.975213       0.000000
    382.642146     411.798626     118.904250       0.000000
    420.913065     416.984687     129.056698       0.000000
    394.992692     435.434578     126.214075       0.000000
    388.175281     455.979851     124.200803       0.000000
    382.399513     464.870700     124.575436       0.000000
    375.228041     470.308777     124.187691       0.000000
    394.121976     482.028249     123.606512       0.000000
    391.099035     490.531826     123.834658       0.000000
    390.000000     500.000000     123.418255       0.000000
    400.000000      10.000000     123.821783       0.000000
    405.897003      18.640525     123.458097       0.000000
    381.966806      27.299878     124.369139       0.000000
    392.767085      27.629110     122.802911       0.000000
    411.097622      45.526045     123.482328       0.000000
    404.261468      51.331345     122.398192       0.000000
    395.532911      62.046022     120.716808       0.000000
    404.822975      83.620548     119.214021       0.000000
    403.438855     101.840938     118.184273       0.000000
    386.256859      93.804433     118.617928       0.000000
    396.853221      94.922197     117.680090       0.000000
    401.110198     120.956587     118.982331       0.000000
    401.558172     143.553652     126.712937       0.000000
    412.891688     142.181441     127.685168       0.000000
    406.392143     133.792186     125.354624       0.000000
    408.041573     150.187199     128.918378       0.000000
    393.289983     173.188285     126.676986       0.000000
    398.561188     180.923654     126.847115       0.000000
    376.415293     180.411010     122.169456       0.000000
    386.846021     187.771303     125.746654       0.000000
    395.830172     189.933190     127.307966       0.000000
    405.173844     210.406506     127.515215       0.000000
    416.706287     234.468108     124.463748       0.000000
    416.541254     225.113762     125.440244       0.000000
    402.974015     246.863951     119.456245       0.000000
    393.381279     246.642881     122.331283       0.000000
    402.974103     256.250725     116.611193       0.000000
    390.888212     276.643235     116.679290       0.000000
    395.791784     286.130445     111.798831       0.000000
    403.720425     294.729207     112.686995       0.000000
    411.742521     309.000514     114.094007       0.000000
    403.585109     313.604806     115.014043       0.000000
    396.066643     323.036015     113.450534       0.000000
    411.028964     341.684245     121.172231       0.000000
    402.409308     340.378998     117.388177       0.000000
    400.141502     358.108495     124.599167       0.000000
    404.283661     372.055203     128.948234       0.000000
    395.808502     368.041988     125.921865       0.000000
    419.863148     396.675391     130.669793       0.000000
    408.519247     393.593372     127.396325       0.000000
    396.890730     395.503333     125.229951       0.000000
    390.347176     406.756376     120.857572       0.000000
    391.139206     417.259664     121.302233       0.000000
    395.293386     424.556693     124.644623       0.000000
    398.478795     444.369382     126.702142       0.000000
    407.397397     469.459841     127.810358       0.000000
    398.254320     453.875721     127.095494       0.000000
    398.701558     471.884863     126.696297       0.000000
    404.562447     491.076020     124.921672       0.000000
    400.000000     500.000000     123.821689       0.000000
    410.000000      10.000000     124.230729       0.000000
    409.912810      26.860113     123.193109       0.000000
    401.433658      30.075930     122.579869       0.000000
    409.685609      36.553051     123.034052       0.000000
    424.863260      58.562375     122.931305       0.000000
    412.945054      54.729186     123.801311       0.000000
    404.445479      61.172709     122.218288       0.000000
    407.269002      93.467239     118.561484       0.000000
    416.976871      84.126586     118.884610       0.000000
    417.375807      96.481549     120.353613       0.000000
    412.626219     104.079808     119.166242       0.000000
    413.002712     121.775565     122.434598       0.000000
    427.541587     137.712554     129.159151       0.000000
    421.606358     144.933118     129.582128       0.000000
    400.004672     154.887582     127.925518       0.000000
    422.378673     164.314477     131.360979       0.000000
    409.218471     159.902519     130.600573       0.000000
    404.935408     174.039593     129.687711       0.000000
    404.628828     198.500130     128.324909       0.000000
    414.037711     196.181794     129.426790       0.000000
    414.993638     205.905888     127.212784       0.000000
    405.412182     220.677445     127.062103       0.000000
    413.108564     216.012151     126.510165       0.000000
    411.481580     243.182854     121.468945       0.000000
    414.664120     252.895686     116.807565       0.000000
    416.553517     262.498595     114.799677       0.000000
    406.902437     265.946256     114.265993       0.000000
    393.005219     267.597292     116.955443       0.000000
    399.470615     273.622116     114.366934       0.000000
    420.917496     306.182824     117.960079       0.000000
    417.134936     315.180201     117.822287       0.000000
    405.984624     331.157124     115.114208       0.000000
    424.884302     336.586105     124.461069       0.000000
    414.808883     355.444054     127.460503       0.000000
    406.839814     350.693807     124.660851       0.000000
    418.075441     365.991310     130.569040       0.000000
    408.249206     361.929958     126.369034       0.000000
    405.873005     380.991816     128.651415       0.000000
    427.104511     391.176902     132.070817       0.000000
    411.057505     406.332117     128.123583       0.000000
    403.019549     402.704013     125.767180       0.000000
    398.063427     410.854183     123.713892       0.000000
    402.798351     419.034976     127.525781       0.000000
    409.248451     437.326705     127.302406       0.000000
    402.595862     430.287160     127.175457       0.000000
    408.956654     446.994179     128.865098       0.000000
    417.772348     474.981135     127.888862       0.000000
    406.623335     480.267757     125.186034       0.000000
    413.374740     487.969267     126.333954       0.000000
    410.000000     500.000000     124.150751       0.000000
    420.000000      10.000000     126.021396       0.000000
    415.031218      18.647687     123.852536       0.000000
    423.015706      29.419974     124.056342       0.000000
    420.319633      49.381494     123.778233       0.000000
    427.219261      43.440717     124.424369       0.000000
    434.443476      54.865426     124.235056       0.000000
    415.832483      65.785669     120.498033       0.000000
    408.735736      74.351999     119.905126       0.000000
    426.441805      84.007403     120.353297       0.000000
    428.244843      93.881245     121.527966       0.000000
    423.185548     104.985264     121.104202       0.000000
    415.469487     112.698600     120.636723       0.000000
    417.781558     133.097366     127.501911       0.000000
    430.973590     127.934797     126.348901       0.000000
    436.955060     146.164271     131.621957       0.000000
    417.668333     155.872338     130.596058       0.000000
    400.099038     165.506405     127.793292       0.000000
    414.069867     169.137016     131.148985       0.000000
    411.994249     180.397479     131.202696       0.000000
    408.571901     188.679535     129.564948       0.000000
    424.497823     211.144295     125.779035       0.000000
    426.225643     221.050504     125.419212       0.000000
    427.139200     230.328140     125.726404       0.000000
    441.973919     247.169677     129.120945       0.000000
    423.961009     239.921386     125.321724       0.000000
    422.931749     248.910474     124.424589       0.000000
    423.607147     270.241431     116.374943       0.000000
    406.728296     280.273965     111.833803       0.000000
    413.507029     299.113081     114.518107       0.000000
    410.287458     321.350684     116.835919       0.000000
    428.568551     313.420237     121.044595       0.000000
    415.997737     331.108059     118.187295       0.000000
    421.439957     323.284315     119.615460       0.000000
    419.513660     345.397578     124.864027       0.000000
    427.209030     351.147812     128.072462       0.000000
    426.809366     360.481172     130.763351       0.000000
    413.094360     374.557288     130.867157       0.000000
    416.902239     385.086615     131.621644       0.000000
    422.642015     373.518721     132.519390       0.000000
    421.171500     406.609946     130.099205       0.000000
    412.000086     418.213378     128.623451       0.000000
    433.399130     421.463669     128.550129       0.000000
    421.452902     426.392857     130.203861       0.000000
    418.818479     440.438552     131.141189       0.000000
    407.990222     459.607690     128.987630       0.000000
    393.457173     462.869562     127.147729       0.000000
    424.908278     468.923791     128.735862       0.000000
    422.464059     483.608849     128.267810       0.000000
    425.283983     492.273000     128.021034       0.000000
    420.000000     500.000000     126.933856       0.000000
    430.000000      10.000000     126.632133       0.000000
    426.198108      18.283752     124.985768       0.000000
    432.028918      25.591364     125.536800       0.000000
    419.333076      38.518540     123.518689       0.000000
    435.905532      63.857583     123.050835       0.000000
    426.901385      67.697911     120.766968       0.000000
    421.528833      76.086511     119.324170       0.000000
    434.639220      75.190550     121.135899       0.000000
    440.540415      99.811634     121.320967       0.000000
    451.269985      87.243237     118.428121       0.000000
    432.669969     105.799181     122.689486       0.000000
    430.149277     115.656993     122.855004       0.000000
    422.647634     120.938016     123.233746       0.000000
    439.530694     124.033011     126.440576       0.000000
    436.637714     134.246330     129.823143       0.000000
    431.666208     163.206284     130.713056       0.000000
    424.100745     173.157725     131.765377       0.000000
    436.996194     173.245109     130.238366       0.000000
    421.785745     182.986714     131.191011       0.000000
    423.096210     192.318069     130.605731       0.000000
